ply
format ascii 1.0
element vertex 699
property double x
property double y
property double z
property uchar red
property uchar green
property uchar blue
end_header
0.1524905381977538 0.3653014673744762 1.8153448711126641 23 22 17
0.0084501792132120 0.3107474077140759 1.5061151495051786 74 71 66
0.3354030768214895 0.4631321138771579 1.7219540581347295 212 236 248
0.3362088703904262 0.4639730932209227 1.7230372047098008 212 236 248
-0.2459294257064844 0.4779384308986873 1.7107028031557803 255 247 224
-0.2286669491591818 0.4791754078042689 1.6935910249883501 212 205 179
0.3564177758438244 0.5131430094637872 1.6902487653704905 89 94 114
0.5046443369040823 -0.5308705948945968 1.7076836000060944 51 63 85
0.1951917211261878 0.2046440428014964 1.7958055946204017 87 53 25
0.5292660360315515 -0.5255655091247138 1.7248018921328088 47 47 49
1.1017819773394659 -0.8883023471028278 2.9480322953228852 156 138 114
1.3009686739264155 -0.8583087636291484 2.8595319546780664 204 192 178
0.5883825126337027 0.2576290830038014 1.8668964974967439 143 142 88
-0.4165251941609482 -0.5026775528542013 1.7477964361421183 123 128 150
0.5879161113421189 0.2574423170295577 1.8659410863002157 143 142 88
-0.1130167543877815 -0.4290050259457509 1.7770900303902069 102 105 120
-0.2558621091424881 0.2627380046534050 1.8399090074465545 15 15 13
0.3582093348435632 -0.5307384664855056 1.6888819437330569 106 114 137
0.3160090580970697 -0.5290981356146606 1.6862231959535023 78 84 116
0.3910724934637339 -0.5263988786758310 1.7019585778500361 63 68 87
0.1957051120446342 0.3381502133564025 1.8122204685999768 182 176 164
0.0574991172818201 -0.4277836345929381 1.7659605132468088 76 75 93
0.2744564340586169 0.3515474036044589 1.8025018792923655 65 61 50
0.1937279767218472 -0.3757179598243571 1.8251354731049949 141 127 142
-0.3641690486232061 0.3478502939485772 1.8309004406824405 128 126 114
0.2795510950923264 -0.3800365146411649 1.7828348449012537 83 88 120
0.1493316009808028 -0.1478671585793907 1.6483594500316345 254 227 112
0.0148216536079583 -0.0804784162344325 1.7038974534588769 255 219 94
0.4106748665318440 0.5163378097078440 1.6834577163538926 168 170 169
-0.0205907920489779 -0.4310394538279772 1.7883950658718426 41 56 79
0.3257651107092792 -0.0975005061860068 1.8118329132411350 91 104 76
0.4627952995828570 0.1015788620420861 1.9651873971004477 145 140 136
0.4531008719306431 -0.0099310353209719 2.0390457388668524 17 17 15
0.2793597732421639 -0.0062868754268623 1.8251661098641443 140 85 44
-0.1557153270503094 -0.1987228756151886 1.8453890493051837 97 92 88
-0.1166042883337199 -0.0375114016418508 1.7953179361157379 181 140 34
0.0518129482009532 0.0233985669465916 1.6522873888462166 185 131 25
0.1145980016262625 0.2407199569388980 1.7794859647406911 171 121 32
0.2403284988902980 0.1565274878820811 1.9296536999776996 45 35 0
0.3811062899158001 0.3481176278840004 1.7986279777796115 149 135 132
0.4751798584775798 0.4285601767978607 1.7319722589402899 51 81 73
0.3997336660193566 0.4334412559326467 1.7481411555534432 75 88 97
0.3435030136063795 0.4517373456782581 1.7306573299769865 199 226 243
1.0908055265264953 0.3624490099076274 1.8917404585662168 106 105 49
0.3981802611582325 0.4679246623484975 1.7265162535857677 185 220 239
0.4050968633834559 0.4658700441592652 1.7194542899074061 181 225 238
1.1284238709070549 -0.9030726549283756 2.9457611048546584 191 173 149
1.2098935539570912 -0.8885774976649939 2.8620176603864369 255 244 227
0.4194652884897669 -0.5215438278151895 1.6794849628881658 48 67 81
1.1316895337572723 -0.8792660056129643 2.8831496236629324 255 242 221
-0.3187755832959070 0.5198056424471824 1.7120692721197046 179 218 223
1.1412832103257275 -0.6155108789329267 2.7513444593797769 112 99 90
1.2458387288464841 -0.8093046158101571 2.8270694372942238 223 207 191
0.1170172341217740 0.2598016315781450 1.8526092355965307 17 14 9
0.1132173482147006 -0.4768739735844391 1.7493469556957773 147 149 170
1.0604173924714608 -0.7793975559545659 2.9177544132836846 163 146 126
0.0122906918090944 0.2904713710915069 1.8518234895667931 154 154 128
1.0581739666611598 -0.7674808518367736 2.9723541517796077 202 182 158
-0.4328476646069648 0.4753854242947103 1.7387714491148014 73 76 59
-0.1264994234741256 -0.0345099636949130 1.8025808370561842 83 47 13
-1.3834703184210806 0.0419042164050997 2.4279469067925330 70 72 71
1.1534768211169781 -0.9350121987298241 2.8988402515025835 255 245 226
0.3582537657599074 0.1112099308212330 1.8614733494654689 63 61 46
-0.1699570064672404 0.0753156258073780 1.9968953281126935 15 11 8
-0.2468732623519827 0.5211918787518783 1.7054598636625438 211 233 231
0.2463998396911510 -0.1391638879456311 1.7318876739019795 252 161 56
1.0562950477520343 -0.7064185642078334 2.9201115439521739 44 44 46
0.1608805757667975 -0.1047440158608423 1.6524869901366050 240 216 204
1.1906414136764158 -0.6669644984874364 2.7288607872057713 254 253 248
0.7165600250342896 -0.6288548418701124 2.1642666152355496 50 48 49
0.4585345816148988 -0.4780398498074588 1.6963455931048828 133 139 153
0.2230890221445943 0.5060088195719790 1.7231459523332353 77 76 71
-0.0554564967539265 0.1117261681045701 1.7921974108128658 40 36 33
-0.0105168886230634 -0.3781106254484129 1.7633172333281160 83 75 96
0.2851300893053693 0.4476940586117920 1.7363963755555594 211 246 255
0.3730314515153942 0.4468707004650860 1.7332126602056734 181 216 244
0.4206527500765034 0.4460298092428110 1.7312260901993959 182 230 244
0.2826147567219112 0.4494923451658542 1.7354694176057996 142 175 180
0.3208188133931819 0.4501269773308118 1.7326224918276720 224 250 255
0.3413675100308464 0.4501349991122126 1.7314064473617634 220 241 255
0.4273415608616938 0.4491356561066456 1.7290974105141641 94 131 157
0.3048079964542351 0.4520696376477339 1.7329076555251151 157 189 210
0.4234858487603214 0.4504255939179948 1.7277801553618635 206 230 255
0.3233002412120682 0.4527902243580612 1.7307139071068358 148 184 200
0.3233612477491574 0.4526929574983388 1.7308376236056076 148 184 200
0.2829920209591510 0.4548453148699989 1.7331357224785542 113 169 184
0.0766697296132901 0.2927492048581656 1.8483100104332417 175 165 155
0.3780939364611638 0.4540509367977234 1.7267909959707635 187 236 251
0.8607400566725106 0.0958655174937207 2.1601513159906833 192 162 124
0.3893246124385327 0.4537648524499872 1.7268915209935864 119 166 194
0.2834637424180519 0.4620674506478470 1.7274587309940705 202 245 255
0.2988735821656764 0.4649620605726235 1.7237769836600572 214 245 255
0.2814412635139403 0.4656045580055274 1.7236202592002161 210 239 253
0.3762896912677933 0.4641445670293816 1.7204398016338938 204 233 249
0.4457322583274630 0.1014382948739343 1.9660619478441654 174 175 157
0.3855857499346371 0.4648182110603989 1.7208017042660446 216 239 255
0.3235784807229644 0.4511003971193250 1.7312033653206813 113 150 169
0.4064503406730818 0.1035525119546299 1.9658340326724373 139 139 139
0.4429655669170676 0.1047397118805039 1.9639720808740138 80 81 65
0.3296610549330633 0.4690769133351140 1.7203941702414174 206 234 255
0.3459988842691001 0.4692899801994352 1.7192965542242860 190 223 254
0.3034723080408643 0.1421815032403554 1.9429438753744448 175 166 157
0.8086818245525697 0.1662227774484857 2.0832841872238284 100 94 78
-0.4174134080612499 0.4897353272201034 1.7362176409452172 143 158 161
0.4501462864291905 0.1061604189903098 1.9642351669949929 78 76 63
0.4504186237521434 0.1799832956601950 1.9117574228497096 167 166 164
0.4683272513246700 0.5006821687902541 1.6922507281841224 190 199 146
-0.2371839689293357 0.5214780611631925 1.7106035635565056 151 156 149
0.3308353785423899 0.2062931899176994 1.8978180640558784 139 135 134
0.3299919805320936 0.5187503326084538 1.6857553047216400 180 179 175
-0.2480314382544425 0.5287537122164591 1.7055210430272125 198 194 193
0.2191654157585926 0.2375709837277155 1.8809127724890777 161 160 158
0.3564136305684713 0.5211697497752282 1.6839160217375653 41 61 60
0.2972828213841507 0.5214228876314290 1.6850113318249251 95 87 84
0.2192785828391892 0.2444388794373996 1.8761945504258388 183 182 178
0.2961897914564909 0.5248004075785222 1.6827262203325233 176 177 171
-0.3442312615576665 0.1299759593154411 1.9837722381065352 10 6 3
0.0680753111078284 0.2859084290693980 1.8536849874089512 158 159 141
0.1325796199782191 0.2896410945864662 1.8505766660120966 159 135 123
0.3803001924312009 0.3259902449311710 1.8133563822799399 113 115 114
0.4305391369854326 0.4463894505403988 1.7306686356974306 197 225 237
0.4256486369454753 0.4467818912240312 1.7313008141082817 199 210 228
0.2571975067548897 0.3387504842761088 1.8083392761620971 90 86 74
0.3693027757499868 0.1675945751515844 1.9332281591280558 10 10 8
-0.2226032861080958 0.4598437713031114 1.7548318894969208 93 84 69
0.2984100509613929 0.4525426691782654 1.7324597708839475 153 182 196
0.3286278142817495 0.4520923076070781 1.7315295411593972 142 173 191
-0.4047168335939922 0.4696059815827909 1.7653299624078944 148 137 135
-0.0715511508379355 -0.4095457516384892 1.8290977775672790 65 75 100
0.3220802432481300 0.4675058790698982 1.7234581506731268 158 184 199
0.3886091577631092 0.4661003385440362 1.7188847467016499 125 176 193
-0.1524288180959557 0.1085333395934183 1.9895116072769530 109 106 99
0.3224660638810347 0.4683723340129801 1.7148229009980558 188 217 235
0.3923943560249991 0.1204146962739420 1.9587041348754579 15 14 9
-0.3267635044112806 0.2499806501900828 1.8951664734366236 148 147 127
-0.2137404115885328 0.1723595594834999 2.3190434478220765 32 33 25
0.2879089189870121 0.4868870604713433 1.7090404217836184 193 230 255
0.2415401276081625 0.1566799110040274 1.9362078194620516 43 33 23
-0.1817308714981811 0.1624522256264930 1.9515238767905196 28 27 23
0.3177329331678230 0.5167329912061720 1.6868975847578087 72 88 88
-0.2477601474498928 0.5319703299425490 1.7040615038743803 121 134 125
0.3704468176233430 0.5248689873338483 1.6792154318222803 149 148 144
-0.3996072185419670 0.5442857591671200 1.7031404400436685 178 157 136
0.0417798146778316 -0.4281725949516020 1.7900307225973260 133 123 134
0.4342395415133529 0.3473317650980036 1.7976829422852358 176 167 160
0.3834550544269267 0.3608658852590978 1.7982367251320368 21 20 16
0.2887401322990838 0.4454428559162064 1.7318169182496210 112 183 213
0.3019929771026989 0.4471205818554126 1.7361242205019185 113 192 209
0.3811432662117440 0.4457182584815471 1.7331171480686138 78 149 171
0.3822848111903694 0.4548205117790925 1.7275234852389421 114 174 198
0.4230012618309026 0.5245518779698418 1.6782091119684059 118 126 129
0.2052919705662894 0.1989263084392397 1.8650383244886981 121 91 55
0.3429430514686618 0.2136716137919076 1.8955675931116176 18 18 16
0.5822310506514122 0.2512453316777197 1.8670476489039756 63 69 59
0.3867286893365628 0.5124040315483532 1.6881711086167825 59 56 75
0.2521746593167291 0.2799454932667253 1.8487317509091807 130 124 112
0.2505349774267872 0.2783612750587464 1.8363817228373571 130 124 112
0.1072199931331195 0.2309473185990208 1.7903153546547164 53 46 20
1.0739908199588986 -0.8425094098385265 3.0013388980515185 157 144 125
-0.4329789135001793 0.4746374592500590 1.7474921110260264 70 66 54
1.2241790304060534 -0.5745061823548290 2.6056453962648822 215 197 193
0.8736690347516354 0.0776135520145315 2.1680995265829899 151 92 76
0.8136208512084915 0.1584602570162519 2.0751395647333855 123 113 104
0.4528213737527689 0.4808974767541099 1.7066272618990597 100 182 194
0.2877934569484029 0.4900327223435737 1.7059870065681577 219 240 243
1.1868414963223259 -0.9398539017959344 2.8495078753772844 233 216 188
1.1595478295304764 -0.8854185392801749 2.7576503503936460 179 165 152
1.2683203476729994 -0.8787156482173241 2.8850758477180061 213 195 183
1.1005554430888811 -0.9038203959255360 2.9996422165765382 121 102 95
0.2698926512570241 0.1935306110058728 1.9127106650016810 42 38 29
1.0597074648712201 -0.7689485412599532 2.9765555522078406 202 182 158
-0.1963637744885210 0.2472903953241850 1.8917703887388859 200 197 192
0.1449493420556209 -0.1380950936658933 1.6314709825768765 116 84 61
0.2869720357419073 0.0026282580121007 1.7805757246216414 251 171 60
-0.1182743945679828 -0.0955610721268818 1.7756795962445442 217 173 76
-0.1367089475884217 0.2461259270349421 1.8883710461527290 56 52 43
0.2685206607285863 -0.0578688426177555 1.7109305268827044 129 86 18
-0.3913020959703782 0.5196189199198739 1.7196169203927969 106 136 160
-0.0686299835181492 0.1026606675815492 1.8998554895257223 27 22 18
0.2032415450810952 0.2147181580485007 1.8910388602438089 27 21 7
0.1168495557573535 0.2636533396491484 1.7768658038166678 21 21 9
-0.2472377902624654 0.5222901308394742 1.7079106091311091 129 131 144
-0.2470266627997763 0.5217718620727341 1.7064751054940313 187 209 220
0.4511019248881003 0.1919361731883002 1.9053888349560741 68 64 53
-0.1789703873341665 -0.1620855831050525 1.9005183200032159 72 77 83
0.3099631347134872 -0.1407650275486239 1.8015548475087082 103 97 107
-1.2854064253627970 0.1153668522173722 2.2351997516785609 24 24 26
-0.0429204351826093 -0.4566954992670752 1.8373916489455859 62 74 96
0.2562149475534166 -0.1820923996591718 1.7255920615145237 253 255 112
0.0925139042917268 -0.0602980964784162 1.6171336180967300 255 242 104
-0.0653991454753311 0.0515577000471417 1.8428420587796257 168 123 30
-0.1049776047575007 0.0960855232973468 1.8721425125070184 25 24 22
0.0154487562820920 0.1587450565160679 1.8135199042266150 49 28 0
0.8272631264618562 0.1668748289231018 2.0875348727734293 228 221 205
-0.3998732568254240 0.5223928011013624 1.7139748320689561 143 169 186
0.0239850488212718 -0.4229632460414671 1.7153082109094462 89 92 109
0.2742210399462248 0.1915165238279110 1.9142127426069295 163 155 144
0.2011914672389340 0.2080011269358312 1.8616513995779793 99 74 18
0.1769421640699251 -0.4189904819120672 1.6809285324476444 99 110 138
0.1425151947645353 -0.4717832408052549 1.7379248670034018 112 124 140
-0.1649763924123946 0.3014889844022328 1.8638890364875857 124 124 114
0.0759619755828626 0.2912341115439058 1.8529085838044599 147 146 125
0.1901559034885421 0.3041137739166272 1.8452012506070548 146 142 130
-0.4213894856042240 0.4796447494773308 1.7641852624919390 156 152 143
-0.0627219033008171 -0.0992487743496505 1.6866379021243718 191 154 83
-0.1903665932136269 -0.4242618078528038 1.7677122709627429 83 86 101
0.1244272156648389 -0.4127111916149929 1.7750423108352533 104 104 112
-0.1502984998753416 0.1093786398621820 1.9761210897979040 105 100 94
-0.1251002074417083 0.1193633455406461 1.9645288904436196 116 106 96
0.8312660630874006 0.1669339550532351 2.0883050698336638 156 149 133
-0.3604842268679302 0.2041264400314500 1.9189720841941642 124 109 104
-0.1456760746364979 0.1978408411192644 1.9285900417552526 115 111 102
-0.2153717256252241 0.2028554753163254 1.9198972731307280 57 48 39
-0.2549332465698784 0.2433297658345429 1.8972523467070213 144 141 136
-0.1923011622505977 0.2513321467183737 1.8871485155113135 158 151 141
0.3647549364857837 0.3273835302625760 1.8226333939839825 154 147 139
-0.0515308169555650 0.2879226326153090 1.8616105204277076 126 130 116
-0.0511619404161835 0.2880174889806147 1.8566666440145931 178 174 163
0.3439895064067877 -0.5357596790659260 1.6771397812336217 29 30 34
-0.0711313377639716 -0.4406696585814010 1.7768909116256388 45 55 82
0.2507584144451304 0.2811005278372798 1.8549736827894949 137 138 124
-0.2327357538141287 0.1194049741029798 1.9670807302162112 109 111 98
0.4523092092447333 0.2055599329404717 1.9193598261568672 115 110 106
0.7665151672759818 0.2449270235421015 2.0049373566828104 79 74 71
-0.3604766901042563 0.2901819899872357 1.8646447322420514 52 45 37
0.3417153057197633 0.4662978820513922 1.7212460354123125 115 176 204
0.4413938789535887 -0.5071496574177867 1.7465667640697164 80 117 125
0.2957630282849895 0.1142871098560356 1.9753183880906682 153 150 131
-0.2550414245562699 0.2487941780158901 1.8935249122456834 112 107 104
0.3409625348857425 0.2300442221784890 1.8892057669229632 64 64 52
0.2513034907650105 0.3487145559661884 1.8067053295951583 68 63 57
0.4639807702011241 0.3548188825612766 1.8243783767469508 160 157 148
1.0357808664062942 -1.0376817895759842 3.0295225007166864 146 137 122
0.0847159440182524 -0.5176680034830549 1.6840126336537591 46 63 81
1.2288936508980146 -0.9692298672493229 2.8315873907275066 229 216 200
-1.7613051112509059 -0.6825941274508641 2.9408274471964884 191 143 129
-1.7248545313753811 -0.6108890408261366 2.9235225237195350 177 147 137
-1.6729668769666928 -0.6287323600311284 2.9058525814326623 175 132 125
-1.7282699470613407 -0.5702801731029468 2.8703508327018072 189 169 144
-0.2354377478730748 0.1453862091889456 1.9592722717614055 121 113 92
-0.3605774356463266 0.2030846788392195 1.9231048464888174 125 112 106
0.0119447561675379 0.2908587076694661 1.8537372535786767 166 165 161
-1.2572726612670091 0.0213131776883419 2.3740938118589185 70 85 88
-1.2238999243487991 0.1056124967170408 2.3009217215183910 17 19 18
0.4543761201456628 0.1465206105485833 1.9410946599402803 107 102 99
-0.1685421002659276 0.3458477433055942 1.8291116771817078 131 122 113
0.4583051467527644 0.1037828311574397 1.9789424749034272 82 73 66
1.0342756952796881 -0.9926199713545842 3.0104606159873706 130 124 110
0.0421879407537558 0.2443256421013577 1.8891434020491840 77 68 59
0.2472190718388125 0.3391312121855056 1.8153426808743398 135 127 116
1.1577191341977160 -0.9591495263746778 2.9077991879179543 233 218 195
0.2147924771641968 -0.1269296676058984 1.6721500775249409 255 221 111
-0.1049780695478201 -0.0894325342449321 1.7381306314903668 210 167 63
-0.0841583601386397 -0.2755031280125662 1.7686547400049670 99 89 97
-0.1578640477393966 -0.1478733259207882 1.7183606942015341 58 65 75
0.1942057252011581 0.2517876733253906 1.8519081758894742 41 37 26
-1.6322036748395343 -0.6936312281507276 2.8691679344331558 207 180 163
0.2277907765619838 0.0616049602380755 1.8463446279773879 251 197 88
0.3307001756052060 0.0679775119982072 1.8261955860879351 252 225 96
0.4614002044180541 0.4886794667169257 1.7033912372014619 183 188 165
0.3019173474230556 0.4656516954053441 1.7303597367055652 162 196 224
-0.3479687259506546 -0.4637034949758634 1.7754991329196872 117 122 141
0.3811192010410142 0.4515709331438815 1.7317438949892396 212 235 243
0.3348941502782981 0.4563719629460083 1.7335583992107326 213 231 241
0.3346794681356519 0.4575824176577367 1.7293008814089068 186 228 250
0.8277084394838705 0.1702257750806077 2.0634542624485603 232 230 209
0.9083666482370715 0.1785979027359137 2.0912180369968318 190 195 198
0.3714994385572635 0.4542798895806132 1.7301161820928272 198 215 241
0.0389988551402447 0.2445198946267175 1.8761074492515386 167 161 137
0.2904019785655061 0.4648734734695027 1.7235549314853309 155 190 210
0.2184502304523606 0.2399316993154461 1.8799364864440440 198 190 171
0.0073799999960586 -0.0488054599850146 1.7945453119855235 92 59 6
0.4061777912040533 0.1033923028410667 1.9772158686411458 148 148 140
0.3105184313422800 0.2794421631986587 1.8489345630875702 159 159 157
0.4644419468244856 0.2850410450066485 1.8498781898446535 164 155 150
0.8622374711441882 0.0975848461709667 2.1746844481029650 215 207 171
0.2077990223636001 0.1249473766954406 1.9090771826740514 216 162 62
0.2507411947755784 0.3398232465063243 1.8145887964595420 165 162 147
0.2589744914399407 0.3469567941904443 1.8031430749471418 196 192 193
0.8307428459184174 0.1607973494475601 2.0916346009445044 150 139 119
-0.2602281330835404 0.2472598298199068 1.8922215075097195 49 47 48
0.0757298124494611 0.2939951388016970 1.8501151697589178 159 155 143
0.0152562568744986 0.2942415842238284 1.8560981436429009 158 146 132
0.1318462849675894 0.2841909595493280 1.8594617279698344 43 29 20
-1.7027816630711159 -0.5049299518421146 2.7149922194209930 176 126 119
1.0275561885552915 -1.0138967267823689 3.0743663141221664 141 139 127
-1.6800968350175032 -0.3385688463789838 2.6713580735132489 209 133 146
-1.5672470911037735 -0.1082418061227447 2.4466760679881108 197 138 144
0.4479196327989588 0.1085814180768333 1.9641894840086436 61 58 51
0.3655543729641322 0.3501795496995904 1.7982578432489777 194 193 173
0.3655553949069746 0.3502146118000492 1.7982696786938939 194 193 173
-0.0856900347425504 0.2167859765664782 1.8248683667624443 32 26 12
-0.3613429577798258 0.2565129464658898 1.8890316533877403 39 38 36
0.1363892760347329 0.2879250294105790 1.8520277544967105 152 127 105
-0.2247106232604673 0.3568681382092544 1.8261743723496218 27 24 19
0.7424385217180683 0.3159166839564511 2.0354526416893690 35 35 35
0.3011577736589847 0.1438359331282306 1.9564537315969157 108 101 91
0.8139618141951506 0.2254586601924256 2.0665618110963635 114 105 98
-1.7480976874860412 -0.6370391885228557 2.9511394510725570 143 117 104
0.3254491856169777 0.3497189263395995 1.7977832365606745 131 124 116
-1.3480290573405562 0.0615240735843914 2.3695618378931695 44 42 47
0.4329391270074266 -0.5218888908987188 1.6795813231889267 51 62 90
0.4402071249444235 0.1014074743933092 1.9706480166616966 64 63 58
-1.8013408851836796 -0.5054494948619417 2.7627580126828288 182 106 106
-1.6923271681322798 -0.4403981869318575 2.7274501810739498 167 148 134
-1.6860084457837012 -0.3895140726784893 2.7110946443954678 170 129 123
-1.6498737426635961 -0.2684797980102982 2.6263048178606780 44 47 38
-1.6972482854189554 -0.4158507386430660 2.7012203624365241 152 118 109
-0.2869431046253473 0.3457699551535954 1.8269811732439845 103 94 87
-0.1672133709098179 0.3438834566021063 1.8230342611681678 112 115 106
-0.1251050898936556 -0.2522627802449612 1.7845572646476131 85 78 72
0.1904705468532668 0.3400961705803278 1.8171218612363444 148 139 134
-0.1001754146480305 -0.1855809463851529 1.7063739081600240 214 140 43
0.4757523839341326 -0.0010506205733519 2.0444234591777413 60 61 63
0.8502156891611302 0.0860117215039882 2.1391215165798898 36 37 32
0.9068629013092426 0.0933048809255158 2.2350007281899322 37 40 31
0.8008010881895046 0.2555417224742935 2.0792185854535870 24 22 23
-1.6818954204990890 -0.2973965926557866 2.6523553004510640 224 167 173
-1.2243757572922160 0.0474424582198199 2.3382100650307547 24 26 25
0.2726351141962260 -0.0557311278762490 1.7193795741476574 182 101 45
0.8338731409227437 0.1512180313059956 2.0821865769933492 214 205 188
0.4287810703927815 0.4471439635951026 1.7364928200241763 163 196 215
-1.6506397087512101 -0.2415237263828973 2.5920661985604725 206 186 175
-0.1284228020506695 -0.0508782155373005 1.7906822196815753 142 83 17
-1.6656718914513178 -0.3438190200998530 2.6892883808781565 39 37 38
-1.6609825855452065 -0.6644029574388973 2.9898932189565981 36 36 36
-1.6460657174844229 -0.7682823854037906 3.0159996698207010 35 33 34
-0.1005210522038385 0.1770267450886610 1.8679879160566133 44 40 29
1.0679933926570990 -0.9764742399926966 2.9843181481562073 213 203 194
-1.7068870353289909 -0.5493263703667890 2.7737757449725526 201 184 168
-1.2661119420815548 0.0955741806148717 2.2986075734587952 112 121 120
-1.2839375534613120 0.0940328041590518 2.3220867544178740 124 133 138
0.3312801604521409 0.0673830139899720 1.8343562706471375 255 229 92
0.3329926601758425 0.1492328189866367 1.9457877169821876 29 28 26
0.4701666042321639 -0.4858906870887427 1.7267039429115392 137 143 159
0.0082280080451884 -0.3805694945323747 1.7353881667705899 62 60 63
0.2045848311033042 0.1896111601630542 1.8957030247519200 73 58 15
0.4410040522479773 0.0941059383328989 1.9573350856772165 33 34 29
0.1377398660474369 0.2921176662363483 1.8459883038172133 136 122 119
0.2526219318060459 0.2960774008805148 1.8296952204213479 142 141 136
0.4516655899605441 0.2828607764339534 1.8406780909423022 172 167 163
0.4646278912988502 0.2832439191058672 1.8395983581343771 157 156 154
0.3661275107641466 0.3291807780615119 1.8212894328398161 145 140 137
0.3421582404713667 0.2444925216188497 1.8710918955725597 171 171 171
0.2683049035987954 0.3531563162351854 1.7933062624041043 158 152 140
0.3100891019378969 0.3523650621320483 1.7980973919114760 95 93 81
0.0771157292557995 0.2917495641238906 1.8475936978303373 164 158 142
0.1334235360781635 0.2851801973382398 1.8485735072914740 32 23 14
0.4464731738808944 0.3462529599965477 1.7961470593109463 161 165 150
0.1369873613880939 0.2858529520099691 1.8509986563560119 159 146 137
0.3107618888863102 0.4469121563514770 1.7349491586271961 188 216 238
0.3310361807458206 0.4545135396318314 1.7296105228362373 222 250 255
0.2868858488825368 0.4524893609059937 1.7334306043424503 113 159 183
0.2870530479427744 0.4525053075517889 1.7323469483516909 97 151 185
0.3194783408123132 0.3425067827139266 1.7855272149763239 74 71 64
-0.4318164941392572 0.4611792719577356 1.7651301685299281 35 32 27
0.4202608462426127 0.3677052137005046 1.7840524243809170 30 32 29
0.3058490855491666 0.4488702172847815 1.7363348659751527 182 214 235
0.5835172173246060 0.2361377433503216 1.8896149590417972 68 58 56
0.5859999236640738 0.2610493479741693 1.8551584856113694 24 20 19
0.1764895390553924 0.3600788460222067 1.7926069380486713 2 2 2
0.5175330848624650 -0.4880565355172013 1.7484947459473388 104 108 119
0.2745342566208286 0.1031146643533345 1.9723014707219544 122 113 98
-0.4278653529569477 0.5364194928946249 1.7076142363244895 184 157 140
0.4416961232055265 0.2384954275716892 1.8718574274739566 160 158 146
0.1136863908933440 0.2423585159928074 1.7876100658570457 156 115 59
0.1263755302912400 -0.0353427602133222 1.6665782984784354 255 220 118
-0.1702163093340369 0.3431150369754449 1.8225994659795959 136 133 128
0.5874788893504868 0.2346498627279454 1.8823711903585929 106 109 102
0.4031814506054242 0.3030766052717613 1.8177199447305461 8 8 8
0.2974714174873351 0.3499591728743408 1.7997940899435536 194 189 183
0.5917736477337590 0.2369243666136799 1.8791405517705839 38 33 27
-0.0769970030268687 0.1692870452738033 1.8586380000075826 197 157 44
0.4617702601385055 0.2653447647405088 1.8930351865495962 18 18 16
0.8709140329155617 0.0963814581366367 2.1500595316678619 162 110 96
0.7696655443977990 0.3198141090245750 2.0229012766692680 55 55 55
0.3702614751399710 0.4357330956218659 1.7359464230910577 84 159 190
0.8133109627349551 0.1807597970671855 2.0765311174705179 239 233 211
0.8062829906638578 0.2488953653851960 2.0317522651516020 12 16 15
-0.4254864489142938 0.4900080285202935 1.7627269345493810 94 127 142
0.2635730710853710 0.3509437263788390 1.7994206349153024 176 170 174
-0.1441161283542977 -0.2644845134039695 1.8686255646168373 84 68 69
-0.0176329262242218 0.2449240915437438 1.8857082560743088 54 50 47
-0.1143591697660837 -0.1850611427970858 1.7502101386319082 212 135 27
-0.1340432922597468 -0.1418042126247846 1.7877044035308607 172 108 37
-0.3696106920318677 0.3488585834619756 1.8367469073348452 112 111 109
-0.2853026580901030 0.3440601355483829 1.8216286280892675 89 83 83
-0.0885731644359234 0.1508704412935906 1.9322747879126096 54 39 18
-1.3900658937680634 0.2979893060187643 2.1023077958766692 114 99 106
0.1122625737210405 0.1364123067014633 1.8170667865131340 189 127 52
-1.4675296697429239 0.0653574438486543 2.2440710667255357 230 194 198
-0.3663138534694528 0.2983146567436403 1.8704582413382329 78 78 68
0.2937780452703953 0.0792486075339052 1.8544203186053492 53 39 13
0.2383192077061063 -0.1276271735191021 1.7273811235010215 228 153 52
-0.0672124951376167 -0.4066456090846263 1.8444822800143805 33 37 49
0.2561063334499579 -0.1539360818526978 1.8853027114684899 63 59 56
-0.0810310098622111 0.1193117599457699 1.9064117415086632 12 9 4
0.1638497202825283 -0.3353980671498256 1.8700934005778163 94 83 91
0.2313982751889059 -0.2629735075888228 1.7967212735006106 65 59 59
-0.2365664185590403 -0.0479071822621989 1.8960050708669658 10 10 10
0.8657666322131271 0.3021150214542281 2.1370759306602403 11 11 11
-0.4438725755402202 -0.5142849724383639 1.9893606825605403 67 72 91
0.2676758503214718 0.1901009774154848 1.9117808228067541 150 150 148
0.3294910258543413 0.1846351887089844 1.9127471484175673 177 178 172
0.3908443753630222 0.1797672740089203 1.9131350169068653 184 183 181
0.3307231203812144 0.1982084804977418 1.9035479305796401 129 129 127
0.9190445140369562 0.1445519123082694 2.1157053802631989 129 130 125
0.4489360621078260 0.1973235364157603 1.9000404143497525 178 175 166
0.3401793561282977 0.2282265853682807 1.8812053349666598 198 196 181
0.1270839737919958 0.2859301531533030 1.8507061797722815 96 91 72
0.1941872258419964 0.2830096908417554 1.8504126411363186 175 167 154
0.2507571583616820 0.2780473156634194 1.8512615793558516 168 161 153
0.1893233224272882 0.3411065841224560 1.8153356206330304 173 162 158
0.3030504121376176 0.3494590039367598 1.7999828713964161 125 124 122
0.1471130196550986 -0.0658651056573617 1.6539511361279131 102 84 64
-0.4086997686744489 0.4838215225612353 1.7205868298376388 158 140 136
0.3729309415144232 0.3478965088291320 1.7980793448355632 157 149 136
0.0651249315721992 -0.0372506388216827 1.6134031960030477 215 164 72
-0.3955506495132565 0.5745533870011023 1.6786056021894911 163 172 189
0.2922653905493292 0.4529601608873264 1.7326098387839579 125 162 181
-0.0528428986184591 -0.1184396906667767 1.6608382536551656 166 149 123
-0.3885319462891944 0.5835760506166112 1.6705703108972891 180 183 188
-0.3812841992732185 0.5842071469503086 1.6671348570696418 99 98 106
-0.2928015455133817 0.1213883508638607 1.9837452417992878 146 145 141
0.4398976998556398 0.1012043592724677 1.9656293909338154 61 63 60
0.3013448650536727 0.4677446509746991 1.7234826914940768 167 186 203
0.4212210902225998 0.4539886531177545 1.7264899732971675 169 211 223
0.1387571016817348 -0.0512779773670666 1.6616244949016781 131 106 50
0.8528004996704923 0.1086477595894577 2.1157923699869778 46 45 41
-0.2680789221163096 0.2026303308116160 1.9283047214084841 42 39 34
-0.3518602564773819 0.2510907825099513 1.8974127707492814 133 126 120
0.8805325093141051 0.0787957959487263 2.1849997249185602 124 98 85
0.8857936027342742 0.0980646510994338 2.1948518700664530 20 25 18
0.4485846395482579 0.2054488650813731 1.9102982036955123 44 43 39
0.9105232377683662 0.1637852183378136 2.0924965088437091 142 141 137
-0.1067225934625974 0.2921103173095705 1.8552753803450273 63 62 57
0.4442221094110735 0.2823548323339645 1.8414437745784968 160 154 156
0.8525672303164599 0.1673670766472586 2.0576170726460981 170 163 155
0.8525197452725674 0.1671392357664801 2.0571617407451810 170 163 155
0.1761715244072323 0.3665198513117919 1.8137311415820097 13 13 11
0.3761405060996545 0.3263516190314839 1.8138821643657639 82 72 71
0.4554997376496067 0.3481662907529829 1.7971256273221221 138 139 121
0.4554497286046328 0.3477819245897322 1.7962264262917758 132 128 125
0.3956784079826534 0.4473733577108170 1.7316079873447301 101 142 164
0.3996249915312157 0.4466179960024827 1.7322037729906024 198 218 251
-0.4181272184324791 0.6108443942749611 1.6311156384218590 46 43 28
0.3635677168358599 0.3363765292627143 1.8088723335553012 16 16 16
0.2402812943580344 0.3605651994936414 1.7922120895869569 17 18 13
-0.3983706799275727 0.5728518176869393 1.6762198822554926 97 119 130
-0.4004743130682699 0.5731698467286144 1.6817108511903582 97 96 114
-0.3750622953905610 0.5601556587467207 1.6486058278401572 119 137 161
-0.3225869432499370 0.5675347002435718 1.6797731234623621 153 206 212
-0.3836623840692033 0.5766244580117228 1.6629877757836817 101 135 145
-0.3114846870049773 0.5633819071381467 1.6692927588219633 125 131 157
-0.3799972834842594 0.5791476013249822 1.6695826731778332 90 98 119
0.5140095270375196 -0.5105152035740017 1.6962740862341028 117 116 130
-1.7610144030082944 -0.6258724650305060 3.0014723861712000 160 124 128
-0.2202631376452393 0.4888184982426900 1.7290439928401882 162 152 143
-1.2957870593783327 0.6887629772659953 1.7087588505619105 127 118 111
0.8130417997876525 0.1650870788822119 2.0672743333228008 144 131 138
0.4030796422852506 0.4384273295039894 1.7415895851524301 130 174 199
-0.2413782435390732 0.5696168658679421 1.6745112143448448 128 151 169
-0.2481894113296368 0.5739123687242894 1.6729502373118943 169 163 175
-0.2218372862443774 0.3486307063624277 1.8220529260985128 196 189 171
0.3813093949539196 0.2650624935022929 1.8918814124565910 23 22 20
0.5808107775242283 0.2527324902772810 1.8569933303533335 77 76 55
0.3978554848546959 0.0973070539663099 1.9676989579802748 54 53 48
0.3969073655972640 0.1028899650251750 1.9681865014425017 145 143 131
0.0150923616765046 -0.1032285102970654 1.6279664077093474 188 167 148
0.4150220518179856 -0.0035831964028792 2.1699924566447439 14 14 12
0.4205553462202138 0.1657017688825492 1.9208336586398289 12 12 10
0.4443597193096833 0.1665502271645712 1.9252731131640037 13 13 11
-1.3632954218880080 0.3767652279759545 1.9913742076425300 169 169 143
0.9171614359724932 0.1368968326824449 2.1073056203235327 112 101 99
0.3488838677872895 0.1123320184493255 1.8940368902031097 52 43 34
-0.0785203862743721 0.1988301070193235 1.8050538445632773 23 20 11
0.8393843239092508 0.1652578839297686 2.0635049715546629 173 166 156
0.4608741524791851 0.3479553820015816 1.7960708067246374 179 181 160
0.4608617647745998 0.3479016664262992 1.7962187906700393 179 181 160
-0.2197896978517613 0.5395423061287301 1.6921682329249559 187 170 150
-0.3828178499982292 0.2480735226869795 1.9028416649991560 24 25 20
0.2691919948981215 0.4719918962287059 1.7208963288110266 128 175 201
0.8755063033873898 0.0977262065076163 2.1736195877482714 151 99 88
-0.2413438705276075 0.5770236237290205 1.6697861112540962 77 122 145
0.1200507660299675 0.2088647583509709 1.7408614469088601 211 155 36
-0.2876933933128214 0.3456600925895377 1.8283426571092003 99 94 88
-0.2657038496938852 0.2020928889665590 1.9243823825914435 47 44 37
0.4858199407487160 -0.5438450516583001 1.7289597502708036 93 96 129
-1.9414811438951547 -0.4794146241751917 2.6793636350933578 215 130 135
0.4815053078951972 -0.4960176313651575 1.7130138204595029 55 79 123
-1.9070391246092682 -0.3698608852142802 2.5849258482882038 242 167 171
-1.8235605466696556 -0.3683200469382466 2.6301921045247796 193 119 116
0.2419129757464845 0.1565459832471192 1.9327007979579505 43 33 23
-0.1956350569601600 0.2469474882271379 1.8900236591735711 188 181 165
-1.5806108175238351 -0.0758863885104537 2.4291504522174541 231 170 175
-0.0166960425715803 0.2447863345854074 1.8833560886199476 31 26 20
-1.4157672200836342 0.2308132239498268 2.0999051685102006 196 125 129
0.1340812356263501 -0.0351190832096156 1.6575392802274511 105 76 36
-0.1008053533890240 -0.2499786564148993 1.7615816648456384 255 213 110
0.8282772464113354 0.2178807924387824 2.0881204260581319 190 192 181
-1.7191708543508857 -0.1512313562435601 2.4723291488191435 206 143 134
-0.0806995144366870 0.1587870275819219 1.8491267900128796 25 22 13
0.2839437429856347 0.4304838958059364 1.7426150372460050 60 64 65
0.4439474154224556 0.4381660575120190 1.7377314902895886 128 167 200
-1.3982691013441122 0.2772019857510414 2.1161457053546795 170 156 153
-1.5948154999027504 -0.0995937233391311 2.4508835639734250 212 162 153
-0.1045522597080778 0.0715922347962332 1.8669624112066385 17 14 9
-1.3437492110686959 0.2311231458098400 2.1246616382567627 198 172 175
0.1368672515249166 0.1526977993595411 1.8081636408370414 42 39 32
-1.7861465095103468 -0.1935285164245151 2.4375944114086026 201 130 126
-1.8044004251374557 -0.1936508065302912 2.4553578010230015 225 144 150
0.8505597805262156 0.2254633207224533 2.1071568868149373 143 138 134
0.1165130635662943 0.2670320276964891 1.7883882444579378 44 43 41
-0.0809411423661249 -0.0784423073318568 1.7153178929074206 214 173 83
-2.0476245129747164 -0.4595652614134495 2.6908866465560828 207 121 122
-0.2206905466281362 0.4644246197759094 1.7210603789279029 200 185 164
-1.6312665079259649 -0.1844483944049028 2.4940408935977225 199 182 162
-1.2906234483400485 0.0041051394975436 2.3080387455819156 13 13 13
0.2978636785278559 -0.1481187745002328 1.7596300429808516 83 77 81
-1.5944521613181553 -0.0220227951686414 2.3569146439486772 218 202 177
-1.7224982766167880 -0.3848342810253988 2.6765025493536010 203 191 169
0.8545849919284226 0.1781143538665104 2.0866128005740894 223 223 223
0.4694792177686933 -0.4974503752797302 1.7609804541086389 118 127 142
0.1509886184406785 -0.0986338917930321 1.6578197144217108 209 188 183
0.4862735467502748 0.4319871981594853 1.7337358218338121 48 49 54
0.9181128943328909 0.1321737377178340 2.0993395646742052 93 90 85
0.4070658242602928 0.4674419478105052 1.7165294552652057 182 201 231
0.1264049428227449 0.2920349382497311 1.8468396224287704 69 66 49
0.2497685344124715 0.2825661129910391 1.8490187635624165 141 140 138
0.3859195623107088 0.3223149605120208 1.8156830524727314 74 74 62
0.2677329288768645 0.3467131162921361 1.8025198337396444 141 135 135
0.7703336726842279 -0.1986485779447706 2.4983162039328564 67 68 72
0.4238813100465142 0.3569663216827241 1.7843481829462731 23 23 21
0.3778413463545628 0.4481192249558024 1.7321956455837677 196 217 244
0.2943502066375035 0.4687919756368710 1.7214360039041350 211 231 255
0.3293287950613850 0.4646718568562311 1.7227924367275573 196 224 246
0.7848412446145747 0.2336956253735291 2.0987035658365594 120 113 87
0.3920202683579885 0.4536926535343247 1.7274758484028161 192 232 255
0.8417542227364064 0.1024007046821688 2.1214845185066995 134 131 126
-0.3882583249383165 0.4683058294377170 1.7471910255501513 153 134 130
0.2368575591212597 0.3299643610194275 1.7496449304006856 23 22 18
0.4624318664328796 0.1494979513117462 1.9370755809955733 53 54 46
0.2147025589231915 0.3569496746371917 1.8028120205667646 18 18 16
0.3458526718288193 0.2708236736660329 1.9758685435867491 31 31 29
0.2986144622446592 0.4523797134190075 1.7323525544788505 153 170 190
0.3488819309820230 0.4517070951413302 1.7303479813683957 129 167 188
0.3020086648663732 0.4670617242682962 1.7224652838212708 165 188 206
0.3106498072640169 0.2969310226042772 1.8357437566883366 129 126 121
0.8005161368263942 0.2285809359054296 2.0544383714358196 101 88 72
0.3924567816296777 0.4499052304144208 1.7302264872196205 207 234 253
0.3717781054925319 0.3376945633772688 1.8137607950162828 40 36 33
0.3701779878966581 0.3526230045206066 1.7982222530869241 64 56 53
-0.2463206124790693 0.5307677685065936 1.7009726016391369 199 211 209
-0.2475400259161816 0.5315077123558968 1.7021712516810170 187 208 209
-0.0609509037728685 -0.1150779306516558 1.6753602200357016 80 54 29
0.8696599028165976 0.0681267783723780 2.1690853609181016 36 32 33
0.2944578904082883 0.1143811092230828 1.9690069528453511 147 143 108
0.4682893581883694 0.3064233881325773 1.8334634067699758 15 15 13
0.3493341403966793 0.1130418788274890 1.9686295356521244 122 109 92
0.4408638045260819 0.3435846695466220 1.7992389584331139 46 45 43
-1.3411384175890437 0.5144778280149845 1.8699887756853300 124 128 113
-1.4154478319923809 0.2905266659313591 2.1115716067750299 90 75 78
0.8738105065386984 0.0586560429115779 2.1626614943610152 87 85 86
0.8057846850213466 0.1638270681748780 2.0832701295000957 87 77 78
-0.2420367465048346 0.5702054631825081 1.6758163450441184 115 126 154
-0.2549569387006416 0.5768589255001887 1.6704595598712231 103 119 144
0.9233981723807178 0.1274088719999523 2.1339377169626110 119 118 114
0.5940873435891747 0.2527047153211114 1.8625266277154431 52 50 37
-1.4088647541843182 0.3875613000461164 1.9300822640666278 107 133 120
-0.2086318099188699 0.4691121410170351 1.7446697276062639 60 52 50
0.4401743075700288 0.1014105719369638 1.9675031274572932 85 80 77
-0.2538199117620694 0.5695740866752738 1.6747432650607548 91 117 140
0.1283313458870116 0.1647696876203180 1.7483297581197066 66 35 15
-0.0573081851844869 0.2210265946452467 1.8061442459417856 164 134 72
0.3171970026127353 0.4663650193823169 1.7216927135020521 166 193 210
0.2052895634144598 0.1842775857510744 1.9076530495451107 87 49 36
-0.3362716506571212 0.1258791086702549 1.9910447171311083 15 15 13
-0.1677518051922487 0.3438010552691637 1.8239244003363448 125 125 123
0.5805892127553325 0.2409355959022942 1.8765459383033749 51 52 38
0.8384392281807361 0.2416977198268760 2.0247339999506351 115 106 107
0.2515875610307978 0.3455443934706026 1.8043515156857781 63 58 52
0.4888957473654917 0.0134957416044236 2.0270328660191255 17 17 17
0.4575551042211495 0.4521294707222683 1.7262282189401779 187 214 241
-1.3906072110260932 0.4122501573620274 1.9565702236100821 123 145 133
-1.7951851406502850 -0.2395325692476305 2.4771386835193581 223 152 158
0.2703224789348758 0.1931441417136704 1.9096493446571789 87 78 73
-2.0274077330482463 -0.4373391684884842 2.5997973833282964 185 132 82
-0.3696260102758528 0.3490814908731343 1.8350660111630266 106 105 100
0.8215711329839530 0.1592958341161223 2.1584586883460206 193 181 167
-2.0724043211061893 -0.2886808492294586 2.4691602293223309 226 194 183
-0.0287988188345786 -0.0700897191763418 1.6702500950334931 115 94 63
0.1923795671053232 -0.0906736249146994 1.6506454364796623 225 206 202
0.8303808912167112 0.2200981474472435 2.1007658305797472 192 190 178
-1.4549812386873255 0.2114972426625709 1.9777357250732339 154 151 146
0.3515880565470041 0.4272673409105590 1.7352123860433124 70 77 83
-1.8132739327015652 -0.3302449041960764 2.5417638122046964 225 150 154
-1.8195829195973130 -0.3314983064282971 2.5483215952739071 200 130 128
-1.7599727577736606 -0.0294744464158525 2.3118548192198802 217 137 148
-1.7986648272470442 -0.0134100312232029 2.2864483444592580 208 146 151
0.1477542711926046 -0.0592173226380244 1.6564709256645063 99 73 58
0.2244073278092442 -0.1105440208293093 1.6686197615859149 255 243 121
-1.4280445104805373 0.3012862900740731 1.9435412970506414 132 129 122
-0.1771574676333923 -0.1343693948301790 1.8157463972809498 48 47 45
-2.0957539644085248 -0.3136930908404325 2.4805754040731682 127 77 44
-1.8564228434568266 -0.0697853564687034 2.3060538787368299 225 150 157
-0.0993972107649998 0.2375259527549700 1.8634352618408307 24 25 20
0.9088101074108796 0.0983419370927900 2.1525873305898879 137 126 124
0.0212909481760267 0.0180499892326300 1.6332320443277890 230 178 76
0.2292355853364632 -0.1036969353646701 1.6672380613315356 254 244 120
-1.5559598222660678 -0.1246801214185645 2.4976691283326127 32 30 31
0.8570404897848817 0.2600227469346545 1.9955373352941712 5 5 5
-0.5032375151735199 0.5365250824968264 1.7340993063749608 36 36 36
0.1121683102129521 -0.0111472711345941 1.6182921786461835 253 219 112
-1.2354245587504564 0.3356351105235025 1.9969297151641603 14 14 14
0.8575450321195029 0.0337381036629623 2.1425866562950491 22 22 24
0.1633273453675514 0.2078526248514386 1.7817154940979907 255 207 99
0.8677991746090536 0.1029094503426512 2.0934673865540914 27 26 32
0.0716760648428149 0.2869020716710121 1.8588858178055494 32 33 25
0.3684773894887547 0.3459096117647034 1.8017685324111936 38 35 26
0.3226767353047943 0.5186773508754627 1.7009831348078579 87 97 99
0.2057839590033184 0.1970068266672135 1.9169375479620834 148 130 108
-0.1012861087362529 0.2904692537070084 1.8495260827130253 113 98 93
-0.1731761613143094 0.3410558966528701 1.8277739388625711 83 84 79
-0.0845194879764336 0.2973500670029464 1.6441087756349204 180 176 173
0.5929530010568200 0.2411380064446393 1.8728166339739447 38 36 24
0.2948663318225187 0.3500488528305703 1.8090886020035735 166 164 152
0.4495541350423927 0.3485289295980052 1.7998558547285752 60 61 56
0.2866698815087143 0.5235595970065008 1.6861165378827510 63 62 58
0.7584687687908491 0.2343089637959722 1.9751349784409726 60 60 60
-0.2360937701616085 0.1646780511596325 1.9492253776322663 88 79 70
-0.1674904371206019 0.2932445187738183 1.8585967102674634 118 120 109
0.8461039785084340 0.1657250327434097 2.0526905809502107 195 197 196
0.3211950940762669 0.5242795101113360 1.6861097411770374 154 152 155
0.7591037907642710 0.2335411583935129 1.9741757428365863 44 44 44
-0.1787502587068793 0.1644318364269953 1.9541895064139980 96 89 79
0.4343833796859498 0.5237883539442171 1.7047853458931632 157 155 156
-0.2924991767633386 0.1218095224594709 1.9837699449024362 77 76 72
0.3121506047029672 0.2769221819864136 1.8499352553074710 115 116 110
-0.1843888922773741 0.1203274878502829 1.9790540162047823 67 63 54
-0.1772648348866725 0.1444607567437204 1.9616393565014392 95 91 82
0.5946071292379204 0.2723376503769461 1.8981132101145761 19 19 19
-0.2547732477955656 0.2487627905810579 1.8902323438439628 109 108 106
-1.3250018362890059 0.0692326849452626 2.2994046579348653 90 87 96
-2.1352431308429933 -0.2724209445167273 2.3981563657341813 192 136 49
-0.0126569066124021 -0.0657297870490069 1.6400119137044373 143 108 80
-1.2759249307257345 0.0221570927315955 2.3993204834952078 68 80 76
-1.7468359063735659 -0.6704839880090239 3.0634070922747765 45 41 42
-0.3638126151751440 0.2040732724524141 1.9292730610211108 81 82 66
-0.1246038571525643 0.1188384619682763 1.9609845111661801 73 67 55
0.2907140067405831 0.4308393329676461 1.7462843814112419 52 58 58
0.3303508061632770 0.5355416889509476 1.6487229406608086 62 76 76
0.2707317363829302 0.1931949691641066 1.9088160554085778 120 114 102
-0.3681327049291628 0.3485760332398737 1.8325298582607770 118 117 115
-0.2859622245764272 0.3444641055739773 1.8246772048786057 71 70 66
-0.3639079580054354 0.3465069780330812 1.8262319597243220 79 77 65
-0.0111802726937427 0.1482985690204520 1.8654476816621430 168 85 19
-1.3131968857560894 0.4736523793618829 1.8671393965079743 149 145 134
-1.2577234541231019 0.5119336944761343 1.8220260611640100 53 56 61
0.0700501869466977 0.2911838403046283 1.8561525977239466 94 95 79
0.9330823968225018 0.1057116176200398 2.1761022536774326 109 101 99
-1.4106205088351620 0.2337947342407245 2.0651167147856397 95 90 86
-2.0318027593023951 -0.4538838974716538 2.6720361682895897 207 130 124
-1.3478956116259109 0.2813810288093510 2.1221365500205231 39 39 41
-1.2825959562457419 0.4143193044438835 1.9316111194723979 31 32 34
0.2822559098484446 -0.0115012133735887 1.7662872031042127 168 93 25
-1.9225608828760568 0.0450083079597165 2.2061386669614818 196 124 135
0.2578047632542580 0.4656309767582349 1.7066705276985097 45 49 50
-1.4111969075852473 0.3552940202588495 1.9895111779116477 183 176 160
0.4432471771308837 0.4672714696213688 1.7131330617159524 89 167 203
0.8517007611558244 0.0334281905385020 2.1040252176072731 35 35 45
0.3204206844808759 0.4647492777107408 1.7060559737367957 135 179 208
-0.0422855878274348 -0.4105914316689020 1.8492485234304870 30 31 33
0.4169065051163751 0.0915287645157537 1.9401529640724300 31 31 29
0.3692416236890168 0.4649811148162447 1.7251673722407590 176 205 239
0.8002619396404531 0.2207516358714150 2.0085564315150402 90 75 68
0.2915938686685040 0.5302534136307386 1.9108297417881368 197 221 245
0.4049350966301125 0.4658131470135183 1.7182268147719628 170 201 221
-1.6021484395804704 -0.2266759755432166 2.5770303625854263 81 78 87
0.3483993136692241 0.1112631296952782 1.9645230967473259 79 78 76
0.3484462007403276 0.1113874446153439 1.9643947768615431 79 78 76
-1.4017701569979129 0.3127431245531955 2.0692210687430244 183 174 169
0.8799136652391066 0.0905720067679726 2.1543439105565945 66 58 55
-0.3709892119694704 0.1155630776437650 1.9970102072859950 103 95 93
0.8883881393382004 0.0755237716791700 2.1765679556818691 30 31 26
0.8618125375952617 0.1083802514471502 2.1541361119566269 75 73 76
0.1340145113420222 -0.0346362490853400 1.6567020732394919 103 75 36
0.1433230095584278 -0.0323305828891425 1.6612772524872308 252 199 87
-0.3183488476409372 0.5195896587171985 1.7115189031201250 138 148 150
0.4545479668738444 0.4986768032477135 1.6985479343205983 220 203 63
-1.5499596359957553 0.2132733019617339 1.8200756174016133 178 202 189
-1.4107093611256991 0.3648603759791163 1.8489984597749158 145 145 137
-1.2979945847487036 0.6051631408146585 1.7328781890966676 107 115 104
0.1154937874558772 0.1337212641975159 1.8485568907593715 191 138 44
-0.0954120635110838 0.2388796563335188 1.8551737509726802 28 27 25
-1.3266630004806919 0.6126080324605072 1.8030923176388520 135 140 133
0.1056576645836123 0.2827855634977862 1.8356629881094784 29 28 24
0.8475732228606317 0.2228222918009140 2.0569332523609782 103 107 119
0.4512041443473674 0.1905990327525620 1.9022050282384244 45 45 43
-1.3528302153218694 0.2740352145884386 2.1249406149549896 33 33 33
