ply
format ascii 1.0
element vertex 693
property double x
property double y
property double z
property uchar red
property uchar green
property uchar blue
end_header
0.3780412879394605 0.1988237796353939 1.3258199617293251 230 255 255
0.3328032311095798 0.2253466878440952 1.2964073294338418 171 169 182
0.1906633401147488 0.3556705419250844 1.2851864906947297 117 98 130
0.3123307128166857 0.5796254050285513 1.4582205938344250 101 117 132
0.1055623819018641 -0.1801207994804962 1.0958390493681676 176 124 87
-0.1407629468107200 -0.5209390327310407 0.9311901301961847 163 136 117
-0.1553328295666830 -0.4642893596574280 0.9565104911004678 120 161 205
0.1104622712522595 0.1669073100064611 1.2000477950550856 43 33 34
-0.0729902404854962 -0.3866691081886907 1.0222468628318369 127 121 155
-0.1454540206615177 -0.3635871418342259 0.9883354994011052 165 157 172
-0.0756373599596201 -0.3651716586628254 1.0118599412997376 143 106 123
0.0755945607194257 -0.3882781439221528 1.0738851949212298 80 97 127
0.0717440175026920 -0.3548897832382099 1.0815344109489047 77 91 120
-0.2097798627344133 -0.2029539977395335 0.9875932326488733 166 136 148
-0.2419093818460891 -0.2021886767856472 0.9957725194239014 171 172 202
-0.0422425762052766 -0.1840408647134043 1.0446414479344561 120 93 108
-0.1520811003048757 -0.0937663039104505 1.0323498890482854 136 102 118
0.1129194011580395 -0.0264095670553707 1.1661581577785187 80 32 30
0.1484067175260693 0.3463134415241321 1.2746473409862054 155 107 103
0.3322352803030909 0.7082965440075150 1.4808131451896569 181 243 255
0.0664329750343329 0.3584821106154764 1.2497925485801202 158 122 122
-0.0495335875008372 -0.5012981530317283 0.9895361338987558 161 193 234
0.1878108231937463 -0.1520434376422412 1.1431215668812973 189 99 21
-0.0416113291954600 -0.5002020329030307 0.9947267474362105 254 254 255
-0.1263233384056947 -0.5702288699879815 0.9453184781133893 196 197 218
0.3231007015044554 0.2612982632898955 1.3057136842716199 172 217 240
-0.0171520060941009 0.3726891152052006 1.2158972434064006 40 30 38
-0.0676274946346823 -0.5051170275967414 0.9928486022715817 139 199 236
0.3218995393739494 0.2842052387571514 1.3181951574321482 92 42 43
-0.2026145627987380 -0.2123333485736667 1.0008707415960079 146 109 100
0.0550105843072908 0.4908918306728725 1.2821929370609835 83 65 81
0.3161751224687182 0.1260601726013179 1.2809289203203111 52 26 25
-0.1341793156682177 0.2945346976369155 1.1422890084065318 145 74 46
0.3452644042965102 0.6064774518442374 1.4655932947130150 73 40 33
-0.1549178649055765 0.1552427679023306 1.1098540417313052 87 59 58
0.3239672225732524 0.5696036063203900 1.4791601389684443 86 43 36
0.3036278423126276 0.6567646823762334 1.4572351597318656 54 28 11
0.3767710403043510 0.2086228369230121 1.3145237188451553 254 254 254
0.3549882467969145 -0.5422714885744579 1.1343292497351856 154 92 33
0.1726421518090507 -0.5712038514438226 1.0174576133362609 157 113 74
0.3946745602033882 -0.2919883188740109 1.2095623565105418 104 51 17
-0.1294419211104942 0.0327111991046646 1.0798871882454950 91 36 29
0.1092032930327678 0.6185293828773479 1.3451114138669307 12 8 7
0.1700490328670010 0.2371042733672978 1.2641555152034691 67 16 12
-0.1541287010413131 -0.5991600088081316 0.9238215195356081 194 226 247
-0.0365634806885325 -0.0180828891654007 1.1173882015227035 73 59 85
0.1094806802902892 -0.0074922205435120 1.1648202713114504 136 126 137
0.1692598272331480 0.0501109121021330 1.1918407863590652 90 47 31
-0.1350907218948512 -0.4899183031719055 0.9481252802810575 181 168 177
0.1639329151430952 -0.4817045643134805 1.0305561791132849 218 212 222
0.1840560524088138 -0.4665272874369267 1.0424008884285942 173 186 160
-0.0848614443543991 0.1302581189305874 1.1372888162314538 191 168 162
-0.1052717223573456 0.1293492803418584 1.1274196383620436 155 198 205
0.2082918715814220 0.1549881781501657 1.2487594131752244 96 86 84
-0.1724051879821958 0.1546978634075493 1.1045494843014561 129 125 114
0.0608456285650885 0.1708816782796554 1.2003602311787629 140 121 115
0.0904935686938658 0.1797891952311485 1.2135908586539452 68 45 55
-0.0389416425182665 -0.0217881940197893 1.1175571624604055 114 112 126
0.3664114723388910 -0.2667231727241368 1.2087244954597820 217 183 138
0.1386329657868726 0.0142053653613493 1.1751457564894789 175 152 138
-0.0141335570727303 0.3076684661020011 1.2116971942449115 124 88 76
0.0849917503746185 -0.1453664231075897 1.1127536945219321 121 78 72
-0.1655706502321886 -0.5133935000502737 0.9348425086046226 83 73 72
-0.1732328518938415 -0.5095329952047778 0.9357034876770072 150 148 151
0.1715642388875101 0.0516803299674667 1.1938447341339651 137 85 72
-0.0885252367347064 -0.4522980700719537 0.9767783711346925 168 187 219
0.1388808701458819 0.0680527810786132 1.1864821693543941 169 148 167
-0.3687744087599873 0.6016549272940950 1.1817243602010072 10 12 25
-0.3897396907210295 0.7112474627910434 1.2169326259491147 73 71 95
-0.1473710799031489 -0.5978198040127218 0.9252397066533220 138 115 135
-0.1144572990118713 -0.5683102001271499 0.9386981683213057 106 102 127
0.0789141360943451 -0.2902909880433437 1.0587795394917656 252 248 255
0.2495961373376080 0.1562431496268594 1.2711841161992790 162 176 177
0.2475633342843514 -0.0521964494236545 1.2053849337829157 203 90 30
-0.0797443399400414 0.1992367437597161 1.1548027245668147 151 118 125
0.0910808095958570 0.1981846018428716 1.2123229963384416 131 104 109
0.0411258582071113 0.2015779270904182 1.1855901991270230 139 96 105
0.1650471567240683 0.0083387146308678 1.1854231624519984 94 39 36
0.1152560391063415 0.0242008183152815 1.1648332923398286 229 237 255
0.0651863867881322 0.0396155176129700 1.1491109710014675 99 49 52
0.3568167403779696 0.0783247259506872 1.2729525407137410 176 139 87
-0.1674417253166559 0.1163401651614495 1.0839168553235725 143 79 54
-0.0576223912881836 0.1284949084894620 1.1462498405274208 160 166 166
0.3783565110314204 0.1460279302163295 1.2997301227586380 158 89 58
0.1075517270008853 -0.1257386869607777 1.1261294733248646 134 48 33
0.1131368787982233 -0.0137680394292369 1.1652471423223945 70 42 41
-0.0268161507455961 -0.0124150307652909 1.1176512185231020 137 51 54
0.0785250715528923 0.2056515351227366 1.2075937069248508 169 151 167
-0.0502813624920898 0.2123356065971252 1.1668497752700151 174 130 101
0.3669090445863362 0.1368610627787938 1.2936169171321152 80 50 48
0.0302012916748356 0.1894767517685532 1.1804789267406668 47 22 25
0.3314679694581936 0.1989582132048222 1.3031807341447719 130 73 66
-0.1880351626034832 0.2153507908272083 1.1007057440859223 159 79 52
0.1714676690339265 0.6379990346361043 1.3942306538873179 81 44 35
-0.1411496221450415 -0.5960276904439301 0.9372847568502359 181 174 181
0.4221731662177043 -0.1982158125655825 1.2467417625094013 184 159 137
0.1703106931068022 -0.1781043210001530 1.1280068671663757 174 99 41
0.1597483878786526 -0.1702388427821059 1.1207262888012641 172 99 67
-0.1594360144190656 -0.5154592828283863 0.9373843649287809 162 124 105
0.2799881261979588 0.0282293043811389 1.2262294883118792 191 116 76
-0.0145384065248287 0.0430320231235064 1.1336730492667297 178 170 191
0.3513490972532322 0.0934150914507098 1.2681783357105854 158 78 41
-0.1227672006457160 0.0687430219866355 1.0940712202587410 86 33 19
0.3379753791120922 0.1440116299595136 1.2929453117551228 163 120 111
-0.2267613651549441 0.1644144745336021 1.0708769575422949 151 88 35
0.0168711701700308 0.2192112551563272 1.1888957695960880 127 51 55
0.1883025104967173 0.6119006394635343 1.3952716601411141 92 50 51
0.3193861529641283 -0.2466330595740404 1.2016387307190528 165 88 78
-0.1448000923037775 0.2519447720830464 1.1336960785437640 100 37 20
-0.1074595651571570 0.1290330410652655 1.1250031825618683 57 73 89
-0.1492096238859176 0.1349403196128531 1.1111305712698181 35 25 24
-0.1643576901385509 -0.5038748713297857 0.9407569442665440 245 255 255
0.1194569234076999 0.1134186070192074 1.2315953862600193 197 122 93
-0.1722391709233977 -0.4795465315912641 0.9538183334447258 200 250 255
-0.1886979063909855 -0.3161055563208723 0.9930144729021737 153 168 209
0.1957438573250770 -0.0792768543167196 1.1640975630064740 170 122 108
0.1238618058560990 0.1313202092480637 1.2312462426534394 117 109 148
0.0465257956974892 0.0496369246029591 1.1440512205978703 96 57 58
-0.2328623664550179 -0.3377452319686647 0.9739190637062540 157 153 167
0.1613696994948556 0.0712254924080513 1.1953843944908258 143 95 109
0.2694711433228218 0.0807027471757982 1.2495946492922201 173 59 32
-0.1664120198686063 0.0872528088642050 1.0838995126514985 128 107 112
0.0326483499596314 -0.4342304719992164 1.0373950582807412 148 141 148
-0.0709189815468075 -0.3734125197311527 1.0051928770070779 159 126 157
-0.0183154341066072 0.1340073217484783 1.1411246718552552 140 91 97
0.1083382699164151 -0.1316290957669063 1.1212766409771722 174 203 221
-0.1686808396034759 -0.3461838917374966 0.9919652836130168 168 164 181
-0.2245701228693833 -0.3338303750456192 0.9783248016107173 177 139 116
0.0845461238781733 0.1835808372453292 1.2112151991605871 70 57 67
0.1431402147958217 -0.0177465116747340 1.1776970493550412 133 51 29
0.1059070497437040 -0.1341599353144806 1.1156456366789165 96 50 63
0.1943579112856879 -0.1184990631228183 1.1574966584943565 206 106 70
0.0487051195613145 -0.0827718524495124 1.1180636942642255 151 141 152
0.1650657611920368 -0.1938332924714015 1.1259339190396649 205 139 117
-0.0663758318579555 -0.1651126768524791 1.0417491751965300 170 185 214
0.1677582079279449 -0.1294948360278544 1.1471109352499014 50 21 25
-0.0791920741569003 -0.4139753487219029 1.0110590626069038 132 177 208
0.1503506234985708 0.1057709679909134 1.2034148421338902 144 67 51
0.1515833250987224 -0.0945848240058935 1.1620202852463037 116 56 45
-0.1113715230324169 0.1310904493905315 1.1196508580627476 111 66 60
0.1406996805340132 0.1383250551030327 1.2556948066344082 172 145 154
0.2259029397926089 -0.0615893823957178 1.1988274248105100 185 129 132
0.3327230105283464 0.1380226793737087 1.2881215496549654 157 158 160
0.1213742543349903 0.1604888687819666 1.2207045166472750 41 56 95
-0.0404066204049219 -0.0144644590993296 1.1159288250018411 101 117 143
0.0333295000878987 0.0036312104691945 1.1401385699174451 236 255 255
-0.1797003117598180 0.1791389324924746 1.1019568550889780 175 140 146
0.1342579864429223 0.3860846516024431 1.2713398863663470 161 167 189
0.1735211188500304 0.1003464332693071 1.2028525761245432 92 51 55
0.1542907654930365 0.1110051390231485 1.2408736789435781 158 127 158
0.3628099004833429 0.7996453293735085 1.5123165185033478 23 22 17
0.3353976391173198 0.1864963542588345 1.3046536751417177 48 22 0
0.0390151989966576 0.1973038153886263 1.1839441315170420 56 41 38
0.3238305011964510 0.2259738212861198 1.3203432651214493 149 150 180
0.2796241578593405 0.1709569303405259 1.2756217623833306 169 117 78
0.3461271784152518 0.1827657222174156 1.2965302536657703 149 95 49
0.4316104469884587 0.1845418116026830 1.3187200508082759 111 73 62
-0.0490673600662712 -0.4327318258585726 1.0006718888983543 160 181 224
-0.0702402247329765 -0.4245204280709566 1.0192178203889330 148 152 189
0.3333234980836832 0.2460167588909245 1.2830246256211113 135 96 101
0.3103528599487748 0.2599382537717121 1.3028621728428229 134 162 202
-0.0727736980688052 -0.1588779782002905 1.0417250314446465 166 173 201
0.0189788474839073 -0.5056463108324589 0.9946948369003954 149 175 200
-0.0621650678268405 -0.3635069450885393 1.0184027709417816 153 120 149
0.3536828660490411 -0.3351288982709553 1.1679963826401969 221 215 215
0.1594358094058016 0.1002292072870450 1.2135355331573070 141 66 63
-0.2165688495370496 0.1146561314254148 1.0657283198241059 233 255 255
-0.1904967308981902 0.1132682458702266 1.0661865040488601 166 148 138
-0.1565616243149269 0.0584822520381962 1.0765527986685508 217 212 218
0.1404258055096685 0.0941738398131150 1.2110321420746326 65 35 24
0.1182314007496020 0.4108298846788282 1.2937419414527989 254 250 255
-0.3668948038406120 0.4488669957689616 1.1416361727493129 39 15 3
-0.0027123989502035 -0.4663623558362892 1.0085409458544150 139 158 200
-0.0045173023241861 -0.4499028059074020 1.0130813047844047 142 159 189
0.1365011746678724 0.3990445911227145 1.2854871113355835 118 86 101
0.0697728847233071 0.4552019249381393 1.2746640374367173 150 185 223
-0.1375512695519809 0.0703268592455083 1.0650779485271531 62 22 14
0.0745100302333263 0.0359036131906669 1.1517458654127635 176 121 100
0.3168056730730062 0.1533086869153754 1.3053407090340570 254 255 255
-0.1701448454651851 0.0501881901813935 1.0751493574836877 61 21 11
-0.1142145314619686 0.2512301964468531 1.1462362978993639 177 95 21
-0.0471294381072482 0.1735984883328757 1.1569433284947406 145 62 46
0.2936063925568737 0.2199000057554708 1.2899502071761286 47 38 39
0.0513697746555076 -0.5274303573827389 1.0176287280708827 102 134 131
0.1403084902618905 0.1221926227645478 1.2307062847835790 163 153 164
-0.3584080053124860 0.5696856014837602 1.1751457498878572 14 13 11
-0.1750750213086385 -0.4672094615637322 0.9566285937469613 129 145 178
-0.1932067433750316 -0.4309780395194526 0.9578273264225835 148 182 209
0.1355809863812447 0.0149340993214212 1.1739208965012551 93 41 45
-0.1125947879477927 -0.4041051387803800 0.9883102323335358 219 255 255
-0.1427155105854924 -0.3809700697417084 0.9906986559323798 247 255 255
0.3281736376492501 0.1376549527849010 1.2885674182915015 115 93 105
0.3475485058061603 0.7139992557597922 1.4889036025489413 130 166 192
-0.1130368941118450 -0.5787781715424521 0.9341766842216136 227 246 255
0.0514521759306348 -0.5271654943205472 1.0176641745056363 144 168 180
0.3200254417715971 0.1388310314426892 1.2926182128175856 141 178 186
0.3161022798930472 0.1630254839237723 1.2920377036552884 175 208 225
0.0544224409062999 -0.0093679673741494 1.1467774133323891 180 157 165
0.0176186701817655 0.0519540718951314 1.1438355968806895 176 175 189
-0.1818785757301653 -0.3331398085497078 0.9875364364328769 198 247 255
0.2855278373344235 0.1524945659868322 1.2772374094864911 64 34 32
0.2493033619797101 0.1561183460598567 1.2723491354523568 145 146 141
-0.0160361626874934 0.1753810818385681 1.1658107863596463 160 201 223
0.4369402647702306 0.1785770874044751 1.3212897976988773 112 74 85
-0.1613932200149312 0.1997133085150749 1.1093439203252791 149 77 52
0.0605293478300939 0.1102298463329092 1.1858713279907582 122 95 128
0.3664229429428011 -0.2654420388695994 1.2086624536528108 215 201 166
-0.1634075988483029 -0.5486354605890424 0.9346175030467402 239 255 255
0.3194424891723365 0.2243803358946576 1.3055785501690065 246 255 255
0.1587795050891044 0.1265918734701049 1.2145851361896887 136 80 93
-0.0971988665625370 -0.5445069063610416 0.9426803273127957 186 231 250
0.0879523680705689 -0.5252199861589640 1.0342309054742092 90 153 184
0.0770764249385128 -0.3604561147560139 1.0651362266087172 85 102 132
-0.1695983799956782 -0.2386779487177005 1.0040613681890185 158 156 167
0.1285648500642690 -0.1183828035590025 1.1305612862576788 203 107 46
-0.1795962398070100 -0.3194230092081637 0.9800477863369936 148 148 160
-0.0227097779557867 0.0266618424312033 1.1286171461726540 190 165 171
0.1242445770691578 0.2056378659412077 1.2175068566843272 155 136 140
-0.0143242354591195 0.2232803442870565 1.1770580529019896 75 35 36
0.3628744385118684 0.8170445868455882 1.5063378516383858 61 23 2
0.0172154831341493 -0.5607352965921012 0.9818458888636195 130 164 202
-0.1136199004346209 0.2257322073195627 1.1413776393431214 58 38 37
-0.0917678756207116 -0.4144081271386277 1.0107289378370128 67 118 165
0.2584801473659639 -0.0080472394064548 1.2221264989097091 64 24 12
-0.0965814381446789 -0.4976865566421825 0.9613159528111750 241 255 255
-0.0945946243066225 -0.3804904809656849 1.0057920723131040 50 93 136
0.4028159789748822 0.1657723259805012 1.3122504542074815 27 21 25
0.1580212367355038 0.1584332879960623 1.2226021380047389 153 129 142
0.0532812592194560 0.4789050563712392 1.2612263551612710 195 223 245
-0.1419855172301650 -0.4708118042642475 0.9295158193701761 173 174 194
0.4316053342748347 0.1645374675877773 1.3207805931164902 147 75 61
0.1303929843385907 0.3857810860776952 1.2807738607986330 98 124 149
0.0989313056782602 0.4444168305818414 1.2892748840566104 151 160 175
-0.0371347067097814 -0.3744719856140120 0.9991486605986878 254 253 255
-0.1147338420718984 -0.3179843265126699 0.9897121903965259 64 75 103
-0.1292274753124690 -0.3110934710318468 1.0161755546701048 187 221 248
0.3549815193206331 -0.2909216073624610 1.1864093654650281 153 158 151
0.1734200753979227 -0.1388508284383104 1.1472981678390732 47 21 20
0.1821219832601079 -0.1363758506735258 1.1657063486240580 199 144 105
0.0289064054162256 -0.0350470687726141 1.0610009505007614 76 25 21
-0.1256522341812955 0.1802859259730673 1.1200533179606285 153 88 68
0.3522053075194631 0.1152794348063409 1.2715905908094041 177 102 37
-0.1100510571746366 0.1445598716996014 1.1235993979397112 83 34 29
-0.1357808174409953 -0.2815600817516993 1.0085982786342453 183 163 175
-0.1740449847366625 -0.1401470473361187 1.0470167229158711 150 72 24
0.3045976760639721 0.0631018898359968 1.2563018473438348 58 25 18
0.0031029239686043 -0.1896668068256723 1.0267682484375462 157 95 82
0.3366500244483052 0.0672833373663600 1.2706228096135184 183 112 50
-0.0368157861714242 0.0000678505013180 1.1216170807583681 74 39 35
0.2489248041811339 -0.2290665175694896 1.1349300783934801 165 99 64
0.1914553956115751 -0.1247118598286549 1.1570945018446086 107 47 49
-0.0312589973781208 0.1584427783609923 1.1648139778378173 195 246 255
0.1318471480028270 0.1234186803588167 1.2185892884769745 155 131 145
-0.2751143163726632 -0.2999830294886598 0.9717073106396260 165 149 162
-0.2107145021371362 -0.2807905960479652 0.9902362052974533 152 181 223
0.3508526852649665 0.1983529728526793 1.3229818093304484 253 255 254
-0.2718285545859007 -0.1553521037847764 0.9926379886618260 164 166 187
-0.1097473411065666 0.1270278682156796 1.1245790452173043 156 177 198
0.3024682643764731 0.2318623388714386 1.3174377178121541 143 151 172
0.3165457510609831 0.2485370506556889 1.2932342124734300 166 219 251
-0.1510850052196811 -0.5420642755225787 0.9173447587892484 141 172 200
-0.1824200870677088 0.0558934801329265 1.0757729912895926 56 26 24
-0.2335211075308762 -0.3614981391580584 0.9537854190450167 255 255 255
0.3543898683275037 0.5885625768242082 1.4348075233966753 80 51 45
0.2825196403852137 0.0837828360181692 1.2499816661588981 184 71 15
-0.2569918776152761 -0.2808448651441023 0.9825625161871160 131 135 173
-0.2311766391614157 -0.2494576526126717 0.9814349465565683 167 197 223
-0.1994737079211420 0.0969122404890268 1.0734347350685476 185 184 189
-0.0436895049169425 0.1651076468283684 1.1531881879041368 142 82 82
-0.2365257340713404 -0.2804291401895715 0.9730638399467241 136 145 184
-0.3628659578846182 0.7446876019658203 1.2187661055795516 119 97 76
0.3181426324764824 0.7171452014175530 1.4793393560680808 146 151 155
-0.1070338275567624 -0.1323466804178690 1.0376532485186152 170 220 255
-0.2235240693825872 -0.2979422662330050 0.9884155927871984 215 227 251
-0.0254297220957632 -0.0518078525012167 1.1011074561741896 140 136 137
-0.1537526914132288 0.0546712673872098 1.0733920554983969 130 74 85
0.0595033653931261 0.1129777223415256 1.1847729380592005 130 103 136
0.1396634774652902 0.1496074026888375 1.2207885371751361 85 74 90
0.3527023252207664 0.1380220864399038 1.2874787120664155 180 163 155
-0.1768129017849073 -0.4337999255944082 0.9530142241366619 219 255 255
-0.1574719487966181 -0.4240629591513412 0.9570508684531888 175 199 227
0.0471600959138323 0.1396745044670886 1.1892917092757129 132 96 98
0.1564566113107217 0.1322790695048842 1.2106016747036041 170 166 183
-0.2476908476549128 -0.2557182672263421 0.9799355402402440 240 255 255
-0.2415441459235907 -0.2398825818488082 0.9737143205882877 205 247 255
-0.1992354381814700 -0.4064570098991688 0.9516335628604498 196 245 255
-0.1802640792518752 -0.3982497132168007 0.9559162028845986 195 244 255
0.3010796447433447 0.1560825763656495 1.2902163608426309 166 163 172
-0.0125992121522326 0.1814322962924530 1.1578565857668506 134 71 54
0.3305392351899947 0.1663940806025584 1.2972239023512566 165 121 118
0.3174111211708650 0.2133298026752307 1.3017649143242271 108 160 199
0.0373235161456921 0.3735404689672545 1.2477889272502125 188 253 255
0.3485349739777510 0.6769743037542230 1.4682879394384460 113 153 179
0.1073230568562650 -0.1294962881399442 1.1236768006244033 162 141 120
-0.1734114338807017 -0.5291317990963142 0.9095963939151266 142 161 191
-0.0302872587378290 0.2003973334483470 1.1672619936049442 85 51 42
-0.1892757753141843 -0.2374361117562193 1.0125309516117409 156 159 174
-0.1964612064922908 -0.4123500338635620 0.9617653045595677 99 140 184
-0.0446518550612074 -0.4017879493056399 1.0110278958807999 166 205 244
0.3297546662016214 0.6986611407844896 1.4697546221886146 80 107 128
-0.1827407141790944 -0.3907510135558745 0.9510947724669067 190 226 248
0.0843706435920686 0.0154518654323324 1.1543905598807287 152 87 81
-0.2107939531208730 0.0926095725952679 1.0744745774676907 75 63 65
-0.1114169244670588 0.1274092487930965 1.1231531952731000 200 249 255
0.3169955589481940 0.1443910361579400 1.2943243388377674 129 165 187
0.1639392716378436 0.0921814884490905 1.1993666493398778 175 154 159
0.0018575241296869 -0.2630402712956001 1.0633076871165010 120 84 98
-0.1513294957281249 -0.2565445710581030 1.0085668220205910 157 150 168
0.0443857895793209 -0.0734662112078656 1.1150041181399346 146 93 101
0.1489901466160354 0.0443645212940487 1.1822037678892536 61 56 50
-0.0386813390189505 0.1339220475361822 1.1409602092632622 106 83 101
0.3021753821496645 0.1668529016039935 1.2961001741143743 154 94 68
-0.0738754931012798 -0.3786772543192173 1.0209335157129287 250 254 255
-0.0957559909332698 -0.3618272916555892 1.0157535879239930 245 255 255
0.0378528192560833 0.1902961097135026 1.1829696269050958 130 77 71
0.0713274605363923 -0.2807010472595367 1.0562963417724183 251 254 255
0.1700809054222260 0.3650912465529664 1.2941546728873035 136 165 197
0.1166509391821215 0.4208069200228992 1.2647871024662831 124 150 175
0.1036600403304442 0.4387617954006682 1.2678760849078521 183 230 255
0.1524445252683021 0.0483506466258688 1.1830748258938955 219 251 255
0.1583991775942010 0.0708958147858304 1.1895476855632554 225 255 255
-0.1736981637794225 -0.4857275346288246 0.9522057397060038 174 200 225
-0.1141591054842008 -0.4574405821603277 0.9755501241687087 122 146 180
-0.2168956821444510 -0.4196257019763165 0.9536030262439840 151 143 158
-0.0981108607203055 -0.4835543137144477 0.9712547662190775 106 126 159
-0.1303506435485154 -0.4060422697715337 0.9885525273888133 173 176 193
-0.1664261285011401 -0.4673607269469829 0.9480077706140585 149 180 209
-0.0533930138109051 -0.3806793869643799 1.0131188349797606 255 254 255
-0.1606213978983360 -0.4397121737783477 0.9457796714839566 255 255 255
-0.0555880753269547 -0.3669268499623776 1.0213688336749858 252 255 255
0.0560316440129864 -0.2733798148651082 1.0589457153170481 163 217 243
-0.2363798025161662 -0.2496470118253112 0.9781245949952946 174 186 212
-0.0259912896285968 -0.0234698888756696 1.1062277876403492 140 84 87
-0.2037766425786799 -0.2499513569666491 0.9530158143472875 248 255 255
0.0788113962352971 0.1301949526547767 1.1822505821556870 149 98 97
0.1113618246805991 0.1882650483255001 1.2160880069010400 246 253 255
0.0504167911987223 -0.2552185622444583 1.0566140226918090 138 87 106
0.4020321492386150 0.1857567053077885 1.3191120025531979 164 230 255
-0.2750116477720412 -0.0429427523895791 1.0219181088886378 156 139 158
0.2163174501325910 0.3259936107271237 1.2935026327215520 92 131 174
-0.0297211382291889 0.3899818092334854 1.2151067532045070 129 86 77
0.1272855331450704 0.4006871752665379 1.2726786711743245 199 255 255
-0.0036480374081383 0.4219110086400754 1.2569835718776534 116 114 117
0.0902794753436425 0.4305144174411001 1.3090668618923582 252 255 255
0.3668140047877596 0.6724418463396047 1.4694356483120152 133 117 127
-0.1376523812548235 -0.6000472453672548 0.9221102327697609 220 255 255
0.1284546832439733 0.1577547787003603 1.2231680120595667 179 215 241
0.4032312422904677 0.1758750398550906 1.3028899662589886 47 53 75
0.3673014693697811 0.1951713315532266 1.3120770437406379 123 129 143
-0.0868432609839086 -0.5147215167608670 0.9571718542798727 182 195 203
-0.0042047610647312 0.2274616494994381 1.1816254762787726 146 82 44
0.3475980042135661 0.6840484766172980 1.4625988172107671 252 255 255
-0.1066147899729334 -0.1229925772808087 1.0412543172789297 141 112 130
-0.0566449832737188 -0.3562392349111687 1.0213488302112337 160 165 185
0.0940644218514105 -0.3071879882824603 1.0616816795789534 252 255 255
0.0210977294192462 0.3722810992573700 1.2427704221926348 51 28 36
0.1124128029817633 0.3970212146903143 1.2820513338859871 42 44 67
0.3302083125060028 0.6781878448939254 1.4721269719354713 106 76 52
-0.1721060341628640 0.0824349757807218 1.0811358262700657 139 84 28
-0.0506391700738725 0.0985909062263068 1.1353965233235435 168 152 153
0.0181790393288542 0.0249059670685211 1.1281899306439676 171 167 182
-0.1430974738335423 0.1287073635129673 1.1171330824533083 61 29 30
-0.2649023978348077 0.8731199448363487 1.3085795476602873 80 56 18
0.3130393320301458 0.7161000337150341 1.4711220133368537 150 90 56
-0.0983693314400982 -0.4246794087324530 0.9751639967610898 234 255 255
-0.2117302460542057 0.1109360097755807 1.0588886826154817 101 105 116
0.3850084591109258 0.6912356145841108 1.4996257328647589 154 168 177
-0.1541209410401779 -0.4778215890201208 0.9512416391027132 217 255 255
-0.2683422395656493 -0.3428451925314593 0.9584502129054888 231 255 255
-0.1018306545302281 0.1241081950573773 1.1339007446128768 115 113 92
-0.1088430182826157 0.1312448875647280 1.1241285269914429 155 176 197
0.1368440406512702 0.1463716411374247 1.2243064410053772 149 146 153
0.3216121690085567 0.1419858222586911 1.2944944955028814 118 133 156
0.3085552126661571 0.1605381032362868 1.3088224609088359 105 110 150
0.0839341974098659 0.1794480541506865 1.2124030506940762 67 52 55
0.0882596051939845 0.4545483714160138 1.2817112928667611 106 92 118
0.0601932927747666 0.4587847724911045 1.2589477033042813 144 202 239
0.1575614866556068 -0.1167927289955918 1.1461777115813243 129 74 54
0.1414557060396317 -0.0007342590407997 1.1783571325536344 157 117 107
0.1403787333044711 0.0073660870582910 1.1758774603377664 181 135 122
-0.3178466299683639 0.0361666352582879 0.9918232072183888 165 191 218
0.1350412799776907 0.0218124869722072 1.1710811846617675 99 52 60
0.2430872695871660 0.0601854487996959 1.2374734569558243 181 155 158
0.1090104905197190 0.0996594595417033 1.1998130985961772 163 147 150
-0.0200028217550779 0.1085760671276260 1.1442135369521218 172 167 174
-0.0605539234883707 0.1187033226425540 1.1364044058894871 186 129 109
0.1316187855494629 0.1151702908471908 1.2148475060741302 156 106 99
-0.1570469968597085 0.1506481320950486 1.1118638328860435 115 106 111
0.2641097624271403 0.1604985350539758 1.2806092006151566 115 68 62
0.1275813553419970 0.1700719800260646 1.2205340505442293 137 88 74
0.0312412196016770 0.1959606462315743 1.1800974498136205 140 108 111
0.0394684020370753 0.2020946477794105 1.1876635046147173 156 135 142
-0.0307469252573304 0.3743642804171308 1.2182044868693669 118 128 153
0.0878396723521868 0.4045938583756792 1.2646786455942058 158 160 175
0.0935585042368406 0.4221894130087163 1.2667463530858170 176 175 189
0.0883613902318526 0.0040578935589919 1.1471730783249894 98 48 57
-0.1477134553590853 -0.6243574481481238 0.9050613086276710 112 132 143
-0.1858118817191267 -0.5591369642571044 0.9260393923948518 183 190 209
-0.4481800092860859 0.4463669402033070 1.1095977719271135 132 156 142
0.1529738429386723 0.0719382113087965 1.1877285052542395 82 35 41
-0.4758358399799696 0.6083764546964950 1.1501687209214249 113 167 177
0.0802080207916813 0.0955736398073165 1.1900012549017593 62 22 23
0.3719738706698957 0.5653387152505664 1.4415493612743009 48 39 42
-0.1523585053667308 -0.5043313416470909 0.9407044112350903 202 216 217
-0.1645761006353023 -0.6356111161261518 0.9051196246173236 219 226 234
-0.2082175654188016 -0.4188410522380524 0.9531484762288935 153 144 175
0.0559398635930938 0.1649260272948086 1.2005335223218059 145 115 113
0.1326450987882501 0.1699663785083554 1.2273362852694227 144 193 210
-0.0850183910588023 -0.3865418493830121 1.0121971214903980 247 255 255
0.0075628023764512 0.1865399929056799 1.1621710420520510 144 129 134
-0.2402031264331062 -0.3955761570173956 0.9409786742218561 138 160 181
-0.1947319506578088 -0.3924984979492592 0.9525330050074031 163 189 212
0.0320204203550243 0.2113020762188422 1.1862702375554277 197 231 240
0.0517565041790414 0.2118419585774361 1.1955543553939101 161 151 150
0.0484687066019013 0.2207915035181650 1.1927635522561801 170 116 90
0.0255644341844835 0.2472639539581982 1.1943963067959344 61 26 0
-0.2697511467657676 -0.3356824818759331 0.9581083157759502 183 224 242
-0.2103736418369409 -0.5335544479063579 0.9035751439730505 166 162 176
0.3022408842094130 0.2597064776217967 1.2967253687792299 181 248 255
0.2168667556709786 0.3105208143268722 1.2919047012401514 117 171 207
-0.2457839456718561 -0.3267925247994755 0.9456363239266895 149 139 164
-0.2702264198444120 -0.3306925572754288 0.9632836237501264 230 247 255
0.0290912900452389 0.3811963114191033 1.2495960316568238 174 223 240
-0.0623350726209208 -0.3305905093199095 1.0149538807750131 209 248 255
0.3707410171891312 0.5753164472607399 1.4601070508249332 128 164 162
-0.0368555308947473 -0.3624640451930636 1.0270265256325104 253 252 255
-0.2549544455378079 -0.2819152834213196 0.9724009841330555 255 253 255
-0.1423579743203127 -0.6229859787201883 0.8970609028033334 102 123 128
-0.2391787880228366 -0.2485524541404746 0.9630993291490960 200 232 253
0.1250755623195325 -0.1709602900816719 1.1115958082895558 238 242 251
-0.0226163624346188 -0.1759511437093376 1.0492661395565250 186 161 167
-0.0769169902097608 -0.3197243961070948 1.0099079824399404 158 153 175
0.1951516044953672 -0.1276340523745824 1.1590747947267594 175 134 112
-0.1991729029343329 -0.3016492696306358 0.9829790428533095 165 163 176
-0.2423301345020102 -0.2878903234958104 0.9641901500516343 152 138 151
0.0552974857422579 -0.2700653769647558 1.0485994252240529 142 140 164
-0.2107179710827889 -0.2659296426130141 0.9791678730137711 246 254 255
0.0492425176084681 -0.0237616377483957 1.1374701264168419 79 43 29
-0.0739846551192034 -0.0057985808299959 1.0914935485584605 179 136 129
0.0853639287537970 0.0098459447761716 1.1531168551024249 86 53 72
0.1160375072516140 0.0155646097232205 1.1656364194564128 232 240 255
-0.1976289208990975 0.0994285275409115 1.0485963557481150 91 71 70
0.0007834541788943 -0.2490365335593055 1.0565200218823811 229 253 255
0.1473365712725533 0.1836047722819007 1.2070947111718131 91 44 52
0.0998641506377380 0.1913913909896317 1.2138585144986909 184 163 180
-0.0244277833884301 0.2014287791014693 1.1694921988427294 156 112 83
0.0375409333720186 0.0256539812333357 1.1480165971272303 241 255 255
0.0460865288604297 0.1251701858415345 1.1831305856794685 43 36 44
0.1240159498717289 0.1657409796324392 1.2289675574296579 81 46 79
-0.0451634349828037 0.1851575235461810 1.1444109750898994 137 139 160
0.2339983609762946 0.2602436893433513 1.2912328050845798 177 152 173
0.3027967038280355 0.2510396897350750 1.2967739897597068 153 186 217
0.3390524141235010 0.2517669544650044 1.3068610557456777 209 247 255
0.0241333146434196 0.3906456730206906 1.2442416307963517 139 148 165
0.1549359439818467 0.3723335204811209 1.2664050851904456 244 255 255
0.1518236256002841 0.3767927762535410 1.2904994895040545 149 157 196
-0.5663926607122947 0.9348014937612839 1.2229397074298640 35 72 90
-0.0609819860933834 -0.6149128218299176 0.9496026439299813 165 163 164
-0.1535613382292000 -0.5545840931833599 0.9393031871981616 234 255 255
-0.0959905184453676 -0.5027064371506722 0.9517175378750445 241 255 255
0.0064369989308223 -0.4981749427864908 0.9943385878126114 156 202 235
-0.0066761548545193 0.0188426988363327 1.1377495650742928 183 150 157
0.2462901362212474 -0.3689998871458767 1.0953602689274218 151 92 52
-0.0194120137552574 -0.4173538846462842 1.0047805924901045 198 215 241
-0.2233745441837822 -0.3805395096349174 0.9403019531023402 165 168 187
-0.2420576007375660 -0.4132875401717656 0.9373751588786097 154 143 159
-0.0709446049814250 -0.3361238482156213 1.0157950389285892 163 162 178
-0.0905277075877765 -0.3123013790207790 1.0097477701191355 158 152 178
0.0566980250816636 -0.3087002413523372 1.0691578281787066 56 60 85
-0.3071858366053511 0.0401759214380815 0.9933130972568512 146 99 117
-0.0245373813523939 0.0389181328665877 1.1287146665503358 142 88 86
0.0631958860992073 -0.3207551754646185 1.0820837101183030 91 126 148
0.0694525588661245 -0.3049517976901835 1.0680606554825449 151 173 196
-0.2140743895070280 -0.2834620127760462 0.9825051484854238 254 255 255
-0.2565520871856329 -0.2729965975968299 0.9693754998303948 149 186 215
0.0479191171513663 -0.1331382620936408 1.0859530596030884 174 99 76
0.1264142902152677 0.1914467730984846 1.2316595657119733 146 98 88
-0.0195095371123300 -0.2104080647654550 1.0472510030885853 206 248 255
-0.3035775906751186 -0.0046629077968150 1.0153006667477220 247 255 255
0.1173950197113610 0.0466595534764066 1.1694517300122620 169 93 57
0.0852363372632671 -0.0134780324076382 1.1272933467321966 176 129 119
-0.3071936768758780 0.0300271451179975 0.9967439829586900 255 254 255
-0.2988235114184667 0.0292447071955576 1.0079586841094181 158 130 142
0.3579595229705217 0.1469257305344751 1.2933488837030100 147 87 63
0.0049432472213614 0.2109535844951040 1.1720175455599615 55 20 14
0.0779185837659139 0.3863797907187759 1.2675502000130350 136 107 111
0.1389148587302852 0.3885400444883288 1.2845989087723160 143 145 170
0.1306941500900469 0.4171172316610109 1.2773081371950930 160 106 96
0.2265906109926073 0.6074853814091911 1.4068413499619514 104 46 32
-0.4050143701217730 0.2808142949351008 1.0754688561818186 42 27 24
0.3246870758386204 0.2391865505782009 1.2979946681414813 120 127 156
0.3123337761480787 0.5302578470633267 1.4154009757904935 113 161 181
-0.0741581040734488 -0.4917809335888828 1.0008656724601834 255 255 255
0.0494902130444354 0.4903191476974436 1.2685641611191063 95 49 60
-0.0959943405345500 -0.4450303580320101 0.9881295569045577 187 205 229
0.3353007279868385 -0.4289684023113194 1.1592957436033611 211 196 189
0.0996052983877369 -0.5081908494294762 1.0273681718071073 108 165 210
0.3625719605870719 0.1208510704054731 1.2939676331635315 46 31 26
0.0590719753558638 0.2043564136325205 1.2006273748736012 115 69 54
0.0213746637639389 -0.2184686986971290 1.0421713283369030 156 92 90
0.0657523793287568 -0.2868008798003880 1.0605356316448007 125 139 166
0.3971286824295368 -0.2277716468379422 1.2359533736226263 187 148 107
0.1699570033677525 0.3234924976288614 1.2848401500299305 236 255 255
0.3430402347332889 0.6623972513567360 1.4768619374460772 97 40 31
0.1213706751220013 0.4475774373258319 1.2799661141433636 100 46 36
-0.3182424971618550 -0.0267290065687212 1.0191375772526805 158 105 89
0.3674961345704666 -0.2641761326047357 1.2228741343947831 188 147 85
-0.3509792888491228 0.3908974185380563 1.1071131867401856 161 101 47
0.2408641662275169 -0.3278354565752531 1.1705816696476754 31 29 30
-0.1773902014293892 -0.2676641859018132 1.0068729187480552 223 255 255
-0.2226702631708167 -0.3295646351438802 0.9825604253808942 246 252 255
-0.2408321546891201 -0.3312731597103338 0.9690918054590323 241 255 255
0.0773727224603964 -0.2839585213438082 1.0529947501660155 110 152 176
0.2553297650733548 -0.0359050434270421 1.2081385180140760 123 64 48
0.1561855143560021 0.0384341213129541 1.1843349883452652 163 131 132
0.1679174645471268 0.0047733024109664 1.1909932254485240 162 131 137
0.0702002700755408 0.1804493672463188 1.2052335863208183 123 99 99
0.0383004778340399 0.3756396741180021 1.2510267731352018 40 73 92
0.3134735641482511 0.2231017805143326 1.3075098009403019 106 158 198
-0.0366411777184716 0.3645218400611380 1.2218042303308525 71 66 72
-0.0877153698236297 -0.4391762757046226 0.9830141794077100 223 255 255
-0.2128505794593308 -0.4050411466236593 0.9580990021028963 124 171 197
0.0539157732214322 -0.0060900384493059 1.1428634321292879 90 72 86
0.2345138603020319 0.0322989128327822 1.2251522879323218 152 69 85
-0.1330862799752693 -0.5448103550243567 0.9428235209342486 184 201 219
0.2488595680101628 0.0244504978735882 1.2237538242676784 165 64 70
0.0950599471362152 0.0339917058750168 1.1501910547072005 178 138 138
-0.0254161639413554 0.1632458370067144 1.1537261093162172 158 88 86
-0.0339049693973170 0.2042859017935838 1.1599783828346599 98 38 38
-0.1115493582681237 0.2200144717709304 1.1334178342918138 69 32 26
0.0348844337574111 0.2357782897996533 1.1909538432417066 72 29 22
0.1685927392685616 0.1196968176989979 1.2123067324878032 167 159 174
0.3747654430650565 0.6677221243666813 1.4754319975514116 74 38 22
-0.2883288052040072 -0.2595404217927476 0.9828487854317433 160 176 201
0.0680607780463616 -0.1269743115185225 1.1024531669925737 245 248 255
-0.3729355006828908 0.5893801082041576 1.1708450205209735 28 19 12
-0.4622138075586615 0.5709390753535628 1.1402473243390319 43 23 24
0.2156088952146534 0.5944046656213992 1.4092703065471790 106 55 26
-0.3995875553536454 0.7188669983461332 1.2128334975643147 68 86 90
-0.4955806068014954 0.5672674216140720 1.1544088015700922 88 115 132
0.0900688036281139 -0.1636019574259355 1.0861611467140075 164 87 57
-0.1391333287077840 0.0949901706424335 1.1025033598797158 54 24 24
0.0623708567279914 -0.0615687880752029 1.1202197733647807 75 15 14
-0.1549264544603078 0.1897649324845308 1.1013392555537651 125 54 34
0.1173893538979516 0.1715308159413615 1.2380708558591165 107 130 161
0.2356758183585032 0.2989359993444139 1.2857588491214738 163 202 231
-0.2616525854193907 -0.3426574563977918 0.9723955793834795 218 249 255
0.1769742425484534 -0.1286177253638825 1.1579224853356549 132 83 69
-0.0326338054876838 0.1330525089454875 1.1483631450115239 151 137 150
-0.0559896493668265 0.1353239434559368 1.1494614849746418 142 112 104
0.1095642783709046 0.3955557084166624 1.3024366352788530 150 185 207
-0.2075559276307508 -0.5172643792568049 0.9570410427611600 133 153 177
0.2559110471281430 0.0161930009963039 1.2372427726264892 153 66 46
-0.2119445542036384 0.0934295844174567 1.0818710241805780 190 216 229
0.0500875558146237 0.1214603102762807 1.1835329750465704 141 147 159
0.1448461148774084 0.1517975181424042 1.2240211693657421 115 90 111
0.3601738996024991 0.1929523439888032 1.3122924175657520 145 128 136
-0.4312362122477031 0.5810175712320352 1.1518972761286768 139 157 143
-0.5027106059096832 0.6189222047700560 1.1552517155270536 137 178 180
-0.5387395050112213 0.9160078270804133 1.2288293913633321 34 46 58
-0.5159942012099097 0.9114257481774090 1.2100276828954650 20 68 90
-0.2997830756232767 -0.2582108994253595 0.9805943227129458 140 163 197
-0.1565042451777049 -0.2442936177432453 1.0015505931659712 173 162 176
0.3306030422540853 -0.2264871964893332 1.2011766340247607 233 247 248
-0.0521849531282119 -0.2178321031151197 1.0599478825277782 251 255 255
-0.2850334927397046 -0.1810025336090230 0.9964816118679588 202 223 244
-0.1398169507591297 -0.4316914143801733 0.9944638371779455 249 253 255
0.1651463047196766 -0.1234497513172619 1.1489790436800096 185 183 188
0.4043229399183466 0.1769566754094797 1.3344280505731645 238 255 255
0.1480054387566004 0.1933570674986852 1.2230769683512441 82 25 14
0.0934673010412736 0.2011820594974788 1.2171436326510654 85 49 49
0.0578250344562812 0.2122285265697846 1.1962716779753686 108 50 39
0.1672383088368289 -0.1068430215493019 1.1642493809560572 171 138 129
0.1986685999017994 -0.1004150500678726 1.1606132256735051 233 219 219
0.1299016424018898 0.0281249107974492 1.1732825072488962 139 75 66
-0.2760066882720753 -0.2960918556612472 0.9734092085956224 238 254 255
-0.0338589332650029 0.0526128909827005 1.1330178297000648 176 168 181
0.1757025013891176 0.0998422029085711 1.2125422689829417 177 181 193
0.0906097055516561 -0.1380330368334218 1.1342854608303026 67 47 22
-0.1105899730100107 -0.1360002284591222 1.0446445021840634 161 187 212
0.1698072583115710 -0.1225994389047209 1.1532753281018187 165 75 64
-0.1148886794452420 0.1206815065533533 1.1284405825959605 133 127 129
0.1737887751059869 -0.1097632126496937 1.1593102953493111 116 62 50
0.1469926077183610 -0.0971590327585994 1.1571409060312834 149 70 40
0.1247505657909404 -0.0134101081394196 1.1705107089301960 145 66 49
0.1458048512156762 -0.0121993418227274 1.1778310477992571 218 216 193
0.0371334636651117 0.0157693254818498 1.1424935085332151 235 250 255
0.1142963772022280 0.4098125953381761 1.2973378171464562 207 247 255
-0.5392894403009658 0.9173540751675575 1.2147454933242576 32 66 93
0.3691822253598674 0.7933572793225764 1.4895863312099145 220 252 251
0.1018909232184226 -0.5176768033467029 1.0283542492040800 107 166 206
-0.0417944913723490 0.1027352323553306 1.1406594197491169 204 180 168
-0.0910533048160358 -0.5098401570216504 0.9532537903048900 151 190 229
0.1693419751066148 0.1051630928694011 1.2085079275646773 185 195 207
-0.1693318715259789 -0.5015331551686314 0.9461114742428810 247 255 255
-0.1382517207636892 -0.4813157959549592 0.9426054411901048 248 255 255
-0.2190687018551796 0.1365170411527480 1.0716058933610797 144 124 115
0.0509076125976792 0.1289876181000754 1.1831362363956097 145 159 170
0.1074201526630591 0.4115436436368266 1.2961826173570157 187 231 255
0.0594333858362052 0.4630391361414117 1.2683175374088125 113 143 177
-0.2428788943416111 -0.3322374220031061 0.9799993519013543 234 252 255
0.1066775361882532 0.1961958561608642 1.2169996554071676 97 52 33
0.1028685453438204 0.2023760690963850 1.2156548339963251 153 126 131
0.0713810288780931 -0.2811559071177280 1.0563661544768712 249 253 255
-0.2291121681139982 -0.2967815891522834 0.9838605941924333 248 255 255
0.3018332781512253 0.2432350955848383 1.2960671039315788 184 241 255
0.0437068871889503 -0.2579882490476770 1.0515823804777420 239 253 255
0.1261528001335666 0.3534458972230185 1.2632197926236894 157 145 155
0.0333215911650281 0.3825437369970613 1.2556419874968570 53 66 75
0.1257113207283581 0.4099590046531444 1.2793028378818674 135 141 173
0.2470957961560808 0.5893706558689641 1.3897720656629631 116 53 38
-0.4249366556283505 0.4253703791220140 1.1249637950651299 71 55 39
-0.0030645772586317 0.4220937942255914 1.2508305497322310 107 92 87
0.1112377455262958 0.4158339871305866 1.2799192395071295 254 251 255
-0.2138022711136610 -0.4053736225436619 0.9490199983716761 251 255 255
0.1166036377423480 0.0162132088756231 1.1653038271493101 255 245 239
0.0136305097709110 0.0300869301409888 1.1450216640487765 177 184 203
0.2357044559647312 0.0300945517620482 1.2190937932130126 226 236 238
-0.0192469311703327 0.0515935565630266 1.1291858844588523 129 126 137
-0.1418730217345515 -0.5935517164648387 0.9228964494906764 182 217 239
0.1262343414638544 0.0516496103080104 1.1730908565901241 64 26 7
0.1458734152257238 0.0529424122180962 1.1800973314432153 55 35 28
0.2531419818600824 0.1575631821195909 1.2692203735532090 166 121 100
-0.1264735363226465 0.1866959874073533 1.1221909756909254 229 207 186
0.1554743071950406 0.1770514580616604 1.2151114198547421 95 50 53
0.0792386981473726 0.1968989060804307 1.2102139221472181 163 143 134
-0.1203475099056254 0.2261877375501093 1.1359649891948356 161 102 62
0.0721027778018965 0.2243608753374288 1.2048444089665344 109 42 33
-0.0560151387325009 -0.3443158979664601 1.0134513834532446 165 164 180
0.3688091719259253 0.2003935576358560 1.3022297681913191 150 172 193
-0.0548354372373529 -0.3399694693096791 1.0186595292398342 209 236 255
0.3424407294348311 -0.3105707906728635 1.1743552788922504 250 255 255
-0.1376485020818884 -0.2689223484417056 1.0138607737737491 182 176 186
0.0339410315623249 -0.2519183006224075 1.0528470208969656 244 254 255
-0.0074784870547077 -0.2390853127804825 1.0520715145359296 251 255 255
-0.0438062197340369 -0.2232831441498758 1.0600772000598322 250 255 255
-0.0190652938026537 -0.3418451522120690 1.0249349468687521 161 163 188
-0.2411494064762192 -0.3345874905172390 0.9777855980016343 226 248 255
0.2064998215863826 -0.1185132060009836 1.1534061255447539 80 31 17
0.1932706818800321 -0.1105096756984356 1.1553232491526944 153 62 31
-0.2398919786373812 -0.0860845668354649 1.0417741891785024 165 155 166
0.1675654383334605 -0.1144864353965258 1.1705793988754063 140 53 25
0.1184622276305031 -0.0112558841966713 1.1682629270816143 225 221 222
0.1190232072451306 0.0005999600410739 1.1660745294120758 203 173 165
0.1347486938249166 0.3387966549260519 1.2552075438179500 187 213 238
0.1064283608172911 0.3553619556638393 1.2296588562170212 150 116 117
0.2501991742079590 0.0083812015245076 1.2204424306668293 63 29 19
-0.0165504757929815 0.0386924136824665 1.1552041335353134 87 84 103
-0.0791065505294126 -0.5899973184778420 0.9637496119656569 222 244 255
0.2417462078958666 0.0342483968348558 1.2253480525153211 168 48 23
0.1232482085907419 0.1919287941056168 1.2194892467505252 65 57 78
-0.0803695006891919 0.2931948617582695 1.1792282786174293 143 113 105
0.3354481436223566 0.2628784955372403 1.3091117266417935 137 129 144
0.1729980313196976 0.3097643131856383 1.2680837788017616 149 124 127
0.3470188859350051 0.5641485358328964 1.4089205711459836 170 203 218
0.2983773109947190 0.6180305280064183 1.4378733277517806 134 67 25
-0.5357670282123596 0.9200562141869979 1.2182061393086454 62 93 121
0.0313030492429725 0.3903577806746830 1.2428458334239667 221 232 226
0.2577177401775919 0.6999979152325949 1.4446874222463741 141 86 45
0.4712912640177471 -0.2501094835755907 1.2474577307613099 200 134 50
0.1564583302121802 0.3073048001095011 1.2624631972922802 124 72 74
0.0686724590993959 0.4797637263026929 1.2692971762657794 111 34 16
0.0949997706105181 0.0300263319442365 1.2130079678746901 159 92 75
-0.0723713025404972 0.0519840545056947 1.1106129675400995 71 33 32
-0.1566233560575678 -0.5481339493697935 0.9455926579773571 192 238 255
-0.2225061112600319 0.1151024383356676 1.0666781948419262 104 102 105
-0.1593167676575445 0.1491786177817853 1.1054664506857801 109 75 89
-0.1375557435038379 0.1855939558807936 1.1281462258727346 170 128 114
-0.5561790511632032 0.9307953708620592 1.2368160475485128 128 169 189
-0.3060434087886203 -0.0084295607238613 1.0225027071080803 236 255 255
-0.1451633471978893 0.0390264613377255 1.0935555930249550 114 101 93
-0.2744682692721833 -0.3277690994733762 0.9652035826255484 167 201 213
-0.2475474042497353 -0.4121706057702441 0.9467734853162160 206 255 255
-0.1579207615797474 -0.4537327800189843 0.9572501755627891 162 223 224
-0.2408169886485217 -0.3402292886829353 0.9796191314743840 222 245 255
-0.2442298831639099 -0.4085413537829563 0.9409009366581775 142 193 210
-0.1619538595667399 -0.2979232537450850 0.9920049850889027 188 209 230
-0.1030836970291109 -0.2842028381735449 0.9940633767784213 170 169 183
-0.2653665828282254 -0.3368404138019824 0.9614930985322557 207 249 255
-0.2771744623922935 -0.3257203508846901 0.9676558023696695 244 255 255
-0.2765112139004796 -0.3030153683691494 0.9729030189481298 239 255 255
-0.1186171501101234 -0.2805422392538557 1.0148110648290654 245 255 255
0.3098002770315961 0.1567781950047547 1.2976149108559880 198 232 255
-0.4475636525948951 0.4178465574638751 1.1264232604433604 132 124 105
0.0271857605551389 0.3776118248181031 1.2439432422833270 119 145 158
-0.4219471226401426 0.4558884562614127 1.1281280724446141 120 92 91
-0.4657459009221454 0.5622506014764347 1.1321627422480673 119 138 144
-0.3319887461640623 0.0162028428752121 1.0158973023945539 142 188 203
-0.1930954245577797 -0.2610675197352236 1.0110455726714114 230 255 255
0.0387693105455659 -0.0086826816095647 1.1536051189325736 177 160 166
0.0988489077089734 0.0324515154329307 1.1734200460546838 94 88 88
0.1106223732652573 0.1035247458423993 1.2015876541305879 54 35 29
0.0637111406857647 0.1050298639103684 1.1852300747538904 110 106 120
