ply
format ascii 1.0
element vertex 233
property double x
property double y
property double z
property uchar red
property uchar green
property uchar blue
end_header
0.0668871083347699 -0.0298180778413666 1.0442660359031415 125 115 113
0.0664941702607106 -0.0197509617712133 1.0457568277918443 60 60 62
-0.0888330004774782 -0.0124069516234969 1.0049529237605381 86 87 89
0.0615804737397947 -0.0074680500379350 1.0417431386182174 130 127 120
-0.0160614794858247 -0.0431189038789436 1.0471666149415519 77 77 77
-0.0154273279109947 -0.0447975604473597 1.0455652254549288 118 113 107
-0.0188040213684315 -0.0454420058315149 1.0437810571207733 35 38 29
-0.0844602123876569 -0.0396083645568838 1.0226126918093217 39 39 39
0.0673212868508302 -0.0314053335591835 1.0452201578621527 60 61 63
-0.0983850905251750 -0.0330400691479344 1.0123717025758403 45 40 37
0.0670293272699465 -0.0240070579990617 1.0462361407119438 46 49 54
0.0643764420452546 -0.0284493823858589 1.0437607540286242 36 37 42
-0.0325847331585015 -0.0431167048615813 1.0390649570900861 34 34 34
-0.0996711926812673 -0.0371485764653043 1.0252143298973875 139 137 125
-0.0191145738357476 -0.0438734218050054 1.0463889457633004 25 26 30
-0.1014908368191418 -0.0327776335209905 1.0117771200096948 161 146 123
-0.0422700798187044 -0.0413036865548533 1.0386019766419898 34 32 33
0.0700042831619520 -0.0300386398729272 1.0444072589619062 136 129 119
0.0550797353870176 -0.0093890132943953 1.0432933394393624 24 25 29
-0.0942990186605167 -0.0161589837371151 1.0013661277812114 14 14 14
0.0636276868296742 -0.0082949660306076 1.0431329209993228 50 50 48
0.0398235690152537 -0.0496528457050695 1.0678838168138254 35 35 27
-0.0969955177814611 -0.0397122511151876 1.0211043184553596 137 134 125
-0.0501214727370522 -0.0410876434563492 1.0349468331195053 38 38 40
0.0654773355099635 -0.0210980636338261 1.0449515081893359 61 56 53
-0.0988098697121829 -0.0386479916102790 1.0188885215534416 40 40 40
-0.0056177256804943 -0.0448038600493699 1.0496185890669942 41 43 42
-0.2069430033618287 -0.0283231175172524 0.9642487633446413 161 168 174
-0.0071649846035869 -0.0457590261923253 1.0476726014291369 56 57 61
0.0654706763299278 -0.0441135588924788 1.0611168094881456 127 129 128
-0.0265136010666222 -0.0449360601132663 1.0414021756795300 129 129 119
-0.0489476732475099 -0.0419304290569752 1.0345227815940596 128 128 128
-0.0087685369950895 -0.0434292658159314 1.0487304527562953 93 94 96
-0.0888654934527624 -0.0381337358400147 1.0254397252563179 67 66 64
0.0019851314276915 -0.0485066966769486 1.0792618706916308 145 141 132
0.0665384247035666 -0.0187360530647598 1.0460529887180163 136 129 123
0.0670363359617501 -0.0441511453075882 1.0548185204601350 138 134 123
0.0319835809701480 -0.0490277740710342 1.0638753437741713 56 53 64
-0.0808164764627353 -0.0383606410334597 1.0287804234501696 64 64 64
0.0667313060365331 -0.0274962296426757 1.0446263403181748 110 109 105
0.0685097944720893 -0.0230830540454976 1.0464446635965297 124 114 115
0.0632818957764685 -0.0263692644743188 1.0440362490356918 96 95 100
-0.0593934642274638 -0.0402962064691866 1.0336776685401214 49 50 52
0.0644053577549952 -0.0164394328342724 1.0439550353915328 57 52 48
0.0707493821190454 -0.0344806919974222 1.0464432482540940 136 129 119
0.0678559557589679 -0.0295380452411606 1.0438304231401372 123 124 110
-0.0810012397104160 -0.0398560089523183 1.0242323329444627 135 135 127
0.0271740913628162 -0.0485267928575430 1.0617599993991425 63 53 62
-0.0237769495635189 -0.0421369485357524 1.0442668801986923 64 62 63
-0.0861626052161541 -0.0393400524564188 1.0267098156613683 135 132 117
-0.0285475827288608 -0.0467243477471572 1.0428091811806914 144 140 128
0.0505526093309608 -0.0356026118478485 1.0516527097998996 22 22 24
-0.0610174228245357 0.0400541854421724 1.0179484198209539 15 15 15
-0.0211756067884360 -0.0450686792909935 1.0430386653168042 50 50 48
0.0592025821207232 -0.0468108533826218 1.0577413289808519 55 55 57
-0.0616984324153548 -0.0392588664638533 1.0370505211690899 38 39 41
-0.0880074267890107 -0.0390749543964900 1.0271195756767491 38 40 37
-0.0748365985766927 -0.0396698719040489 1.0272315416935858 22 26 25
-0.0915225478319507 -0.0352558293154245 1.0279400972118566 30 30 30
0.0015487292051817 -0.0467517724585976 1.0516173240978586 119 119 119
-0.0235568968209005 -0.0455162147609353 1.0436681198808981 121 122 116
-0.0199984601800265 -0.0455303957911042 1.0434590455302386 126 127 121
-0.0275734882943330 -0.0425573872685577 1.0435399846300317 76 74 75
0.0047819669349688 -0.0469937914865309 1.0528670963337521 54 54 52
-0.0215905450672671 -0.0424339545850714 1.0457242181634703 91 91 93
0.0167288301105609 -0.0479244222511333 1.0578951613007597 54 50 47
-0.1000813414316030 -0.0367516072210266 1.0187097531970626 42 37 41
0.0295621777128990 -0.0486230406806298 1.0634415842530094 48 44 43
0.0002944134571871 -0.0462030213686222 1.0507993986829571 44 44 46
0.0423954985906168 -0.0500155252018872 1.0692201874542768 25 23 28
-0.0440212462427774 -0.0422303223690480 1.0362520118841259 38 47 44
-0.0684854022911145 -0.0398619265201318 1.0286743869691224 31 31 33
-0.0524961242781854 -0.0406072772275373 1.0353197028131389 37 38 33
0.0668115099412843 -0.0331047715562320 1.0433459406662098 70 69 64
0.0646348159219568 -0.0260986530863369 1.0459332107820580 71 75 78
-0.0478024261288500 -0.0413404409868566 1.0351371500605966 20 21 23
0.0721210978725410 -0.0138841354881998 1.0527125587530262 133 129 120
-0.0879501856121497 0.0019107999546411 1.0062754043563351 96 96 98
-0.0803783361671540 0.0156608762447005 1.0083518940650533 92 93 98
-0.0563681211054115 -0.0392426082746437 1.0339560298932398 22 23 25
-0.0104306530816254 -0.0459030245897098 1.0465973909875865 143 142 140
0.0649394402016527 -0.0309997189057009 1.0440331064737753 98 93 100
-0.0078387909182547 -0.0458389610366702 1.0487700298111451 115 115 115
-0.0287315052002501 -0.0428043709668025 1.0431244860383171 34 34 34
0.0651406991829463 -0.0300087802241712 1.0433586102150201 26 26 28
-0.0168228512476619 -0.0444953595008885 1.0455414441058619 40 39 45
0.0068907541920545 -0.0461120219838753 1.0544974222177608 53 56 49
-0.0853389991739291 -0.0393020816941752 1.0283233764430273 53 55 54
-0.0899493816559425 -0.0397698335463616 1.0264778402923720 50 51 55
-0.0019673231483509 -0.0440119787151528 1.0520275561125525 100 100 98
-0.0834636087366982 -0.0395306522909940 1.0256747521330007 42 43 45
0.0676450285546473 -0.0251082501868360 1.0451904511495067 117 117 107
0.0676492734024892 -0.0240536042319424 1.0458363548128677 55 48 55
0.0674094046788014 -0.0231935684336548 1.0448475961387476 134 120 119
-0.0428826834612898 -0.0428635754441571 1.0369890461774391 146 151 145
-0.0305376601402652 -0.0434138395037366 1.0410183686323438 39 45 35
0.0490515201256122 -0.0499471170728375 1.0726841141688621 148 129 131
-0.0735736647507535 -0.0403577920127718 1.0297176982722851 126 126 124
0.0654425743310010 -0.0341096839801470 1.0425293780840670 46 50 53
-0.0831486282735980 -0.0380204739254338 1.0251319863522310 24 24 24
-0.0864009365968744 -0.0422196668189862 1.0280310988828318 158 153 147
-0.0668709052378417 -0.0398906752859727 1.0304165521339215 38 39 41
0.0102085150322801 -0.0451027803759235 1.0563728604418332 69 69 69
0.0375093344004955 -0.0485095403842650 1.0664661337884822 57 55 56
-0.0909370965566122 -0.0403733346340167 1.0258328507550960 152 150 138
-0.1013112614082055 -0.0353103062064914 1.0211034181505170 58 56 57
-0.0896379365848615 0.0201889547008402 1.0083351470920821 98 99 94
-0.0789540132749638 0.0036098198804256 1.0109879241684971 92 93 98
0.0269174380384572 -0.0160120150080488 1.0274211944662657 103 84 42
0.0597943112933506 -0.0153706177252702 1.0428381197967234 111 88 57
0.0210886930587507 -0.0461187184294796 1.0610238586995926 70 71 73
-0.0392637929090526 -0.0414637289721804 1.0403086717885435 88 87 85
0.0060271888673546 -0.0467872483289519 1.0535996692122103 144 141 134
-0.0802600154964571 0.0186529974310336 1.0063413643344499 100 105 111
-0.0902990991754343 0.0354322212901064 1.0052732312224855 87 95 97
-0.1153263246200836 -0.0412631616031000 1.0256243306190438 154 150 139
-0.0119578002949966 -0.0429273993965892 1.0478454284511216 84 84 84
0.0412153700090561 -0.0502205765156292 1.0686066148413398 128 137 132
-0.0774442034039326 -0.0393988360203692 1.0290647843853569 35 35 37
-0.0381622589263704 -0.0434527084318666 1.0383936734069275 151 147 138
-0.0032689603961137 -0.0455431787607527 1.0518946619714193 121 120 116
-0.0932762876722210 -0.0381909493233146 1.0307764523814926 92 94 93
0.0662417779712960 -0.0284058220502907 1.0434827680365124 47 48 42
0.0397381875650029 -0.0485242944539971 1.0666491051514413 91 89 90
-0.0302616871717776 -0.0420291717148521 1.0436106035662327 17 17 15
-0.0014008075211339 -0.0447054999965264 1.0508870901339034 93 93 95
-0.0372517901135626 -0.0415422057368741 1.0417964072311690 36 36 36
-0.0286843790590433 -0.0414024519048000 1.0442130487925867 84 84 84
-0.0026563068047869 -0.0455089426453852 1.0500972016767975 137 137 137
-0.0082426735757113 -0.0435222126211704 1.0501188601649545 128 128 126
-0.0597064076987141 -0.0404567015388863 1.0380093475868799 44 44 46
0.0385130080505711 -0.0505484576839366 1.0677639594152615 147 140 134
-0.0832794396307001 -0.0389690429509721 0.9743045248958627 130 127 118
0.0670112836399812 -0.0417403420392054 1.0491712744972321 42 46 47
0.0602071843487739 -0.0491724294459951 1.0710643657577821 140 133 123
-0.0913236991513753 -0.0382145871884159 1.0307767016392864 32 32 32
0.0333822623158033 -0.0484204462407562 1.0657895828602819 119 120 115
-0.0988640826326838 -0.0379415965017951 1.0322139079490931 152 149 142
-0.0314454602003639 -0.0441402167303880 1.0399927260234110 150 147 140
0.0232783448170970 -0.0474133165287152 1.0608832342480656 135 132 125
0.0624504395413847 -0.0446669468535779 1.0573810626226381 46 46 54
-0.0241095966204570 -0.0458202877685586 1.0413312168948086 149 145 134
-0.0695341448527866 -0.0406160788449868 1.0308152117937599 146 143 126
0.0013686367248533 -0.0458208906582955 1.0513503814562211 33 36 41
0.0178434831162959 -0.0469604365985226 1.0579118322525725 105 108 99
0.0069956115803156 -0.0460897410803573 1.0538785653487486 34 36 31
0.0550822009729600 -0.0500753130720645 1.0768560389089914 55 52 59
-0.0027251101523061 -0.0447351422458214 1.0505438803997618 30 32 31
-0.0482260127729825 -0.0412480681465077 1.0362419918566013 36 40 43
-0.0389199648014175 -0.0423942639979022 1.0392924037058962 45 54 49
-0.0749593739884612 -0.0395022757478301 1.0322956069812050 32 37 41
-0.0652092292165456 -0.0396976122502502 1.0365181257314811 13 15 14
0.0533110767015350 -0.0514145091206696 1.0740163944619117 53 55 50
-0.0211717756370867 -0.0449531893706091 1.0420880955303511 41 38 47
0.0464520611446637 -0.0507993250806871 1.0714105167463883 143 142 137
-0.0057658451186783 -0.0460318664955341 1.0475381228252421 143 146 139
0.0617690925634794 -0.0469205648734038 1.0614752086599026 134 131 122
-0.2046754655063516 -0.0299573083133770 1.0143751890443815 67 58 59
-0.1359660294659279 0.0096904273454242 1.0053731836933986 142 136 136
-0.0283326970537586 -0.0437848219167190 1.0412730859085424 123 126 117
-0.0897667925349699 -0.0402712712669807 1.0301831609393077 146 146 136
-0.0835784452518783 -0.0394151343050893 1.0286955357631018 58 56 61
-0.0212464122004659 -0.0441206276012907 1.0430146885007130 116 115 113
-0.0131474192058749 -0.0440155050503281 1.0473241033346157 109 111 110
0.0001054512162079 -0.0447040955432807 1.0508592615222310 117 116 114
-0.0343526136670231 -0.0420248132104969 1.0421211607143470 96 96 98
-0.0032850722671697 -0.0441346204595879 1.0510199023021627 99 97 98
-0.0468847056577045 -0.0419837659475293 1.0616842260061843 81 81 79
0.0136133793272724 -0.0466794111510086 1.0563645685351051 129 127 130
-0.0182821762490577 -0.0440618822492077 1.0470911731276054 21 19 24
-0.0222603021345636 -0.0428841014724457 1.0460736148033192 18 18 20
-0.0392219277087542 -0.0413159267545451 1.0410202285640429 112 109 102
0.0659115557251321 -0.0420823067213160 1.0486427575217445 45 49 48
-0.2086689676185373 -0.0322230286887333 1.0176017291147301 142 156 167
0.0154467322350519 -0.0467822985779354 1.0477845627549087 31 31 29
0.0206472318914022 -0.0471760092975330 1.0580868710853926 139 137 138
0.0279377402796475 -0.0480484729236875 1.0627625873900433 30 35 29
-0.0139378555449185 -0.0433084828461422 1.0472672841807065 90 95 89
-0.0310920410960567 -0.0383991690091623 0.9843758377372714 119 121 120
-0.0777865576454052 -0.0395742967216099 1.0318057277277939 59 62 69
-0.0419107680891332 -0.0422496348522685 1.0381291492132012 53 55 54
-0.0545658732290119 -0.0401854436741219 1.0376563738085842 30 31 33
0.0111659496569782 -0.0476182537325017 1.0555662184470629 137 133 122
-0.0472989974029817 -0.0425006602065450 1.0361043341566756 149 152 141
-0.0638352870598693 -0.0402341391047058 1.0350662584405110 46 51 55
-0.0290536964972667 -0.0433025862315008 1.0387028433606125 143 140 131
-0.0510019039307482 -0.0408937449593547 1.0335687144226975 142 144 133
-0.0527722033857309 -0.0406167904969471 1.0349446139627205 43 53 54
-0.0075203340054038 -0.0447806318299519 1.0491326919128887 120 124 123
-0.0033882934453851 -0.0453581443610226 1.0480855831177116 135 134 132
0.0655387662691024 -0.0341341533623896 1.0483359832184256 29 29 29
-0.0956755274032093 -0.0379628495849646 1.0323995752431947 91 93 92
-0.0666078427726246 -0.0395903132899119 1.0327830940034270 34 35 37
-0.0221459461931932 -0.0459700667486946 1.0420141613034331 147 143 132
-0.0418513860370299 -0.0411048441223916 1.0391258079887373 23 23 23
0.0788377510529291 -0.0262505413294414 0.6239382834974860 99 98 96
-0.0883216948865989 0.0287305948971532 0.9609384813068176 15 15 15
0.0765947575160019 -0.0285432427016747 0.6628327093620333 29 31 30
-0.1190676972807164 -0.0209090076338523 1.0027358498310763 79 95 108
0.0828397604295132 -0.0262781864946961 0.6166099115055628 140 141 135
-0.0166625954790719 -0.0432343630574238 1.0467987325911745 87 87 89
-0.0370193782352286 -0.0428749524467422 1.0383320314014670 38 39 41
0.0284685570017927 -0.0489313130021792 1.0623181404137367 148 139 134
-0.3282193356994881 -0.0290875707616582 0.6343584240973343 0 255 0
-0.3197694877677207 -0.0287893283464508 0.6291574402507215 0 255 0
-0.3117991593855696 -0.0273783879355295 0.6255983619244418 0 255 0
-0.2954666573105981 -0.0414282298890911 0.6124611917165282 0 255 0
-0.2940290893459207 -0.0302791896052667 0.6234589745098336 0 255 0
-0.2774897028249907 -0.0381150719641546 0.6125025808469545 0 255 0
-0.2662670887249534 -0.0300799737769667 0.6104070671458317 0 255 0
-0.2308033067580053 -0.0239219460775511 0.6044035178621082 0 255 0
-0.2169513016969102 -0.0233456050388729 0.6083658491079503 0 255 0
-0.1998542668258228 -0.0269823733531783 0.5956769501879646 0 255 0
-0.1844388798357670 -0.0254633111718354 0.5823555845691161 0 255 0
-0.1729772883613211 -0.0281148459035124 0.5810706968642290 0 255 0
-0.1455757010686647 -0.0272582660026680 0.5779951416377007 0 255 0
-0.1199888662787336 -0.0287172786881977 0.5804755723374229 0 255 0
-0.0926449034994865 -0.0289190299907807 0.5852896341698052 0 255 0
-0.0870110285014199 -0.0307115318148943 0.5917408097909158 0 255 0
-0.0445930280513353 -0.0288752023332221 0.5751991247200225 0 255 0
-0.0265179669091264 -0.0256129712002766 0.5772723546721295 0 255 0
-0.0119408665957929 -0.0192933372443982 0.5864537056015988 0 255 0
-0.0027751007445948 -0.0186782416021443 0.5914862461142777 0 255 0
0.0319314985895720 -0.0254511338965364 0.6077517634225944 0 255 0
0.0798740292620545 -0.0260194951179733 0.6183600390145771 0 255 0
0.0788377145509190 -0.0262505494220626 0.6239384798975430 0 255 0
0.0779174298919496 -0.0247062649595534 0.6314493017445216 0 255 0
0.0759601616624644 -0.0267878070357797 0.6371852980198683 0 255 0
0.0807758256999041 -0.0280023066305380 0.6475066914804711 0 255 0
0.0813251945872119 -0.0270276102025960 0.6536756947920619 0 255 0
0.0773326888635858 -0.0284446569374558 0.6601182201687001 0 255 0
0.0771132690085760 -0.0285175031984012 0.6617097814677622 0 255 0
0.0820157415938914 -0.0194972778008538 0.6703981860745706 0 255 0
