ply
format ascii 1.0
element vertex 700
property float x
property float y
property float z
property float nx
property float ny
property float nz
property uchar diffuse_red
property uchar diffuse_green
property uchar diffuse_blue
end_header
-0.0446662 -0.00233665 1.02962 0.79457 -0.183315 -0.578838 31 32 29
-0.122083 -0.000115319 1.00383 0.378372 -0.462544 -0.801803 47 47 46
-0.120673 -0.000294316 1.00239 -0.463841 0.134492 -0.87565 30 30 30
-0.090441 -0.00186949 0.998501 -0.0365681 0.803675 -0.593944 17 18 19
-0.0900355 -0.00186985 0.998438 -0.139543 0.0241962 -0.98992 25 25 27
-0.0896335 -0.00183169 0.998919 0.821747 -0.00869835 -0.569786 45 48 50
-0.0889079 -0.00216361 0.998501 -0.550891 -0.16601 -0.8179 78 82 84
-0.0791978 -0.00244627 0.998434 0.322472 0.141921 -0.93588 93 98 103
-0.0788909 -0.00243128 0.998697 0.173128 0.0760073 -0.981962 87 92 96
-0.0778646 -0.00240065 0.999258 0.129752 -0.0591342 -0.989782 37 40 41
-0.0774899 -0.00252983 0.999422 0.436318 0.0868652 -0.89559 36 38 40
-0.0461213 -0.00190599 1.02878 0.29459 -0.291732 -0.910005 12 12 12
-0.0454294 -0.00213241 1.02888 0.101988 0.121208 -0.987374 24 24 23
-0.0449881 -0.00212419 1.02906 0.720079 0.0236066 -0.69349 29 29 28
-0.044742 -0.001895 1.02907 0.642659 -0.00641146 -0.766126 32 31 30
-0.0902368 -0.001517 0.998453 0.576478 0.0527325 -0.815409 24 24 27
-0.0890436 -0.00169908 0.998492 -0.552054 -0.114959 -0.825846 72 76 79
-0.0890193 -0.00141781 0.998734 -0.551333 0.0315334 -0.833689 63 67 70
-0.0890188 -0.00141789 0.998733 -0.547433 0.037159 -0.836024 63 67 70
-0.0790484 -0.00210348 0.998513 0.315591 0.128477 -0.940158 91 96 100
-0.0774777 -0.00210492 0.999353 0.612758 -0.0210663 -0.78999 33 34 36
-0.0462308 -0.00138192 1.02918 0.770654 -0.0346802 -0.636309 13 13 13
-0.0457741 -0.00137259 1.02929 0.427785 -0.0653374 -0.901516 21 21 20
-0.0456332 -0.00175682 1.02904 0.0815361 0.132371 -0.987841 24 24 23
-0.0453754 -0.00136713 1.0292 0.317205 -0.0063012 -0.948336 29 29 28
-0.0454103 -0.00138121 1.02933 0.429678 -0.00138161 -0.902981 29 28 27
-0.0449824 -0.00139708 1.02899 0.261266 -0.0763064 -0.962246 33 32 31
-0.0450083 -0.00138255 1.02908 -0.0645302 -0.043818 -0.996953 33 32 31
-0.0450794 -0.00140904 1.02907 0.631994 -0.0758461 -0.771253 33 31 30
-0.0446389 -0.00142941 1.02858 -0.129169 0.162984 -0.978137 31 31 29
-0.126388 0.00173561 1.01544 0.899411 0.0338331 -0.435791 41 41 43
-0.126115 0.00161743 1.01549 0.797375 -0.00108352 -0.603483 34 34 36
-0.121955 0.000761345 1.00222 -0.302665 -0.342326 -0.889498 66 66 65
-0.121772 0.000802138 1.00286 0.0667722 -0.324342 -0.94358 54 55 53
-0.121188 0.000431804 1.00291 -0.259155 0.049128 -0.964586 29 30 29
-0.12132 0.000796517 1.0028 0.0439731 -0.281081 -0.958676 33 33 32
-0.0902361 -0.00110188 0.998374 0.172012 -0.391605 -0.903912 24 25 28
-0.0890266 -0.00124488 0.998258 -0.551972 -0.0178164 -0.833673 59 62 65
-0.0890341 -0.00134629 0.998823 -0.542585 0.063316 -0.837612 63 66 70
-0.0890256 -0.0011196 0.998386 -0.548836 -0.0021842 -0.835927 59 62 67
-0.0893306 -0.00102366 0.998384 -0.478811 -0.0344445 -0.877242 54 56 62
-0.0792378 -0.0017222 0.999005 0.407098 0.110133 -0.90672 90 96 99
-0.0787935 -0.00164016 0.9996 -0.46689 0.0113862 -0.884242 74 79 82
-0.0779693 -0.001762 0.999294 -0.286405 0.151112 -0.946117 37 40 42
-0.0776778 -0.00174132 0.99943 -0.273109 0.00445921 -0.961973 31 32 34
-0.0772799 -0.0017495 0.999192 0.805269 -0.00420132 -0.592895 28 29 31
-0.0459865 -0.000992996 1.0294 -0.0752404 0.166457 -0.983174 18 18 18
-0.0455506 -0.000996014 1.02932 0.298154 -0.0230012 -0.954241 27 26 25
-0.0451883 -0.00101588 1.02913 -0.0537216 0.0917483 -0.994332 33 32 31
-0.0448299 -0.00126529 1.02862 0.196223 0.13681 -0.970968 30 29 28
-0.126092 0.00217151 1.01507 0.880681 -0.0680644 -0.468794 33 34 34
-0.121815 0.00114198 1.0021 -0.327027 -0.34876 -0.878305 50 50 51
-0.0890332 -0.000764355 0.99824 -0.551916 0.017869 -0.833708 62 64 70
-0.0890087 -0.000939128 0.998681 -0.541163 0.0766154 -0.83742 64 66 72
-0.0790293 -0.00124189 0.999792 0.0436314 0.114835 -0.992426 76 81 84
-0.0791524 -0.00129135 0.999161 0.148647 -0.0864081 -0.985108 86 92 95
-0.0779484 -0.0013592 0.999724 -0.295314 0.223188 -0.928965 36 37 40
-0.0774828 -0.00139117 0.999191 0.261959 0.444267 -0.85674 34 34 37
-0.0464547 -0.000654401 1.02885 -0.00366947 0.13579 -0.990731 14 14 14
-0.0461402 -0.000627255 1.02927 -0.021188 0.202456 -0.979062 13 13 12
-0.0456603 -0.000851597 1.02933 -0.516055 0.25639 -0.817283 25 25 24
-0.0453411 -0.000758387 1.02947 -0.458885 0.193671 -0.867131 32 31 29
-0.0452982 -0.000838148 1.02927 -0.639361 0.161276 -0.751803 37 35 33
-0.0449754 -0.000796636 1.02864 -0.494196 0.263631 -0.828414 31 31 29
-0.12629 0.0024436 1.01464 0.887638 -0.0266952 -0.459768 35 35 37
-0.126026 0.00265679 1.0148 0.885735 -0.12224 -0.447807 34 34 35
-0.125839 0.00233747 1.01518 0.879529 -0.149224 -0.451842 33 33 34
-0.121937 0.00135981 1.0014 0.285001 -0.0852336 -0.95473 74 74 74
-0.121489 0.00130927 1.00088 -0.296553 -0.246075 -0.922769 68 68 68
-0.12147 0.00130602 1.00147 -0.49851 -0.180383 -0.847909 48 48 49
-0.120175 0.00112611 0.998967 -0.603393 0.0701527 -0.794352 36 36 37
-0.0898872 -0.000182355 0.998417 0.412821 -0.133038 -0.901044 32 32 37
-0.0890185 -0.000280758 0.998242 -0.55263 0.00928683 -0.833375 61 61 65
-0.0892917 -0.000525257 0.998304 -0.399761 0.0397651 -0.915756 64 66 72
-0.0885626 -0.000578828 0.998324 0.73404 -0.0968975 -0.672158 70 74 78
-0.0790117 -0.000930823 0.999342 0.148295 0.0317868 -0.988432 77 82 84
-0.0786268 -0.000927013 0.999406 -0.0563748 -0.0837552 -0.99489 63 66 69
-0.077858 -0.000920845 0.999413 0.0693499 0.155455 -0.985406 36 36 39
-0.0457595 -0.000440104 1.02936 -0.488903 0.259152 -0.832955 25 25 23
-0.0458401 -3.16581e-05 1.02908 -0.157351 -0.0141456 -0.987441 25 25 23
-0.0454189 -0.000420005 1.02942 -0.472304 0.322417 -0.820351 32 31 30
-0.0451718 -0.000377893 1.02982 -0.456573 0.105887 -0.883362 39 37 34
-0.0448567 -0.000442236 1.0286 -0.602884 0.263779 -0.752962 31 30 29
-0.126516 0.00282366 1.01179 0.784029 -0.0781548 -0.615785 80 81 82
-0.125274 0.00298515 1.01451 0.776756 0.0309858 -0.629039 33 33 34
-0.121694 0.0016791 1.00099 -0.079483 0.0441652 -0.995857 56 56 57
-0.121232 0.00163376 1.00038 -0.443547 -0.0540162 -0.894622 50 50 50
-0.0898562 0.000201618 0.998246 0.482368 -0.0213955 -0.875708 34 34 37
-0.0894777 -0.000144464 0.998385 -0.408927 0.0318772 -0.91201 59 60 65
-0.0894778 0.000205717 0.998089 -0.453713 -0.0963461 -0.885925 54 56 59
-0.0891745 0.000223218 0.998112 -0.54465 -0.0334728 -0.837995 71 74 76
-0.0784157 -0.000578879 0.999343 -0.0501715 -0.138593 -0.989078 53 56 59
-0.0780353 -0.000574288 0.999378 0.258672 -0.144512 -0.955094 39 40 43
-0.0782106 -0.000223536 0.999402 -0.0309622 -0.168645 -0.98519 43 45 48
-0.0776595 -0.000592433 0.999217 0.0228485 0.148838 -0.988598 36 38 40
-0.0774722 -0.000293558 0.998585 -0.0984007 0.171729 -0.980218 34 36 37
-0.0465048 0.000398126 1.02965 -0.252126 0.0642906 -0.965557 14 14 13
-0.04622 0.00021452 1.02909 0.211205 0.176688 -0.96134 16 16 15
-0.0455485 0.000409571 1.0295 0.247407 0.0155728 -0.968786 32 30 28
-0.0453558 4.23136e-05 1.02945 0.301591 0.0741373 -0.950551 35 33 31
-0.0449653 -1.81152e-05 1.02885 -0.544011 0.389371 -0.743265 31 30 28
-0.126719 0.00315912 1.01156 0.377144 -0.118948 -0.918485 95 96 96
-0.126231 0.00301671 1.01168 0.895878 -0.137469 -0.422498 51 52 52
-0.125968 0.0032512 1.01206 0.897653 -0.121019 -0.42376 37 37 38
-0.125876 0.00316305 1.01402 0.810035 -0.131197 -0.571516 36 36 37
-0.125876 0.00311447 1.01396 0.787944 -0.11349 -0.605197 36 36 37
-0.126017 0.00315068 1.01412 0.899094 -0.0981361 -0.426613 33 34 35
-0.121509 0.00199723 1.00036 -0.594772 -0.0304578 -0.803317 57 57 57
-0.12063 0.00189381 0.998384 -0.479703 -0.243225 -0.843046 78 77 77
-0.120042 0.001887 0.998464 -0.618176 0.0199967 -0.785785 35 35 35
-0.0776375 7.99404e-05 0.998945 -0.0779538 -0.119094 -0.989818 31 34 35
-0.0461152 0.000725748 1.02925 0.783775 -0.240302 -0.572671 20 19 18
-0.0450638 0.000445377 1.02982 0.697133 -0.190465 -0.691179 38 37 33
-0.126414 0.00333154 1.01154 0.830011 -0.142609 -0.539208 68 68 69
-0.126631 0.00364053 1.01152 0.674084 -0.0865455 -0.733567 80 81 82
-0.126154 0.00354443 1.01167 0.893985 -0.130191 -0.428767 44 45 45
-0.120482 0.00224247 0.997713 -0.486623 -0.181012 -0.854653 82 81 81
-0.120434 0.002301 0.998111 -0.489555 -0.172111 -0.854818 73 72 73
-0.119993 0.0023068 0.99794 -0.495147 -0.0442073 -0.867684 61 60 62
-0.119848 0.0022356 0.997568 -0.489194 0.0317116 -0.871598 62 62 63
-0.0905517 0.00116595 0.999202 0.836811 -0.0949692 -0.539192 23 24 26
-0.0790863 0.000766378 1.00562 0.488236 -0.154501 -0.858927 76 83 87
-0.0791702 0.00106724 1.00641 0.846137 -0.0581686 -0.529782 71 79 83
-0.0462102 0.00123501 1.03022 -0.6033 0.0932989 -0.792038 23 22 22
-0.0463802 0.00117426 1.0297 -0.647829 0.0382134 -0.760827 15 15 15
-0.0458011 0.000902459 1.02966 0.78245 -0.243581 -0.573097 27 27 25
-0.126367 0.00388593 1.01185 0.898072 -0.096059 -0.429232 62 62 63
-0.126081 0.00407624 1.01172 0.877585 -0.004587 -0.479399 40 40 41
-0.125916 0.00377781 1.01206 0.892821 -0.0868412 -0.441961 36 36 37
-0.120651 0.00264446 0.997631 -0.483073 -0.221006 -0.847229 72 71 72
-0.120641 0.00270964 0.998093 -0.47825 -0.155154 -0.86441 78 76 78
-0.120634 0.00264196 0.997597 -0.48609 -0.195985 -0.851649 72 71 72
-0.120575 0.00256563 0.997023 -0.398473 -0.144557 -0.905717 76 75 75
-0.12061 0.00263696 0.997608 -0.485567 -0.2055 -0.849703 85 83 84
-0.119547 0.00261832 0.99702 -0.468773 -0.228917 -0.853141 60 59 62
-0.119107 0.0026153 0.996745 -0.483203 -0.226626 -0.845669 60 59 62
-0.0902766 0.00134669 0.998897 0.840383 -0.090231 -0.534429 25 27 29
-0.0899982 0.000915617 0.995448 0.546875 0.124205 -0.82795 23 25 27
-0.0791521 0.00126361 1.00584 0.3329 0.00658636 -0.942939 81 94 95
-0.078915 0.00132546 1.00685 0.146928 0.0692614 -0.986719 57 65 67
-0.0465708 0.00158935 1.02985 -0.547946 0.151887 -0.822609 13 13 13
-0.045555 0.00145285 1.03015 -0.170823 -0.0268614 -0.984936 35 34 33
-0.0451403 0.001478 1.02955 0.33675 -0.232699 -0.912387 36 35 33
-0.045036 0.00142108 1.02991 -0.658506 0.0430302 -0.751344 39 38 35
-0.0444605 0.00148548 1.02961 -0.244204 0.425449 -0.871411 42 40 34
-0.0436979 0.00141758 1.02864 -0.318505 0.347385 -0.881974 44 41 35
-0.12686 0.00447351 1.0116 0.848545 -0.182697 -0.496582 113 114 114
-0.126892 0.00447168 1.01173 0.783368 -0.150157 -0.603148 110 111 112
-0.126316 0.00435543 1.01157 0.900558 0.024686 -0.434035 67 68 69
-0.126084 0.00439593 1.012 0.505163 -0.0032125 -0.863018 42 42 44
-0.121546 0.00322693 0.999243 -0.44094 0.241178 -0.864526 76 75 76
-0.120564 0.00307238 0.997575 -0.482158 -0.102122 -0.870112 71 70 71
-0.119289 0.00293555 0.995888 -0.45335 -0.0465654 -0.890115 70 69 71
-0.0904765 0.00165781 0.999094 0.853311 -0.018806 -0.521063 25 26 28
-0.0904758 0.00165741 0.999107 0.852668 -0.00659993 -0.522411 25 26 28
-0.0904758 0.00165741 0.999107 0.852668 -0.00659993 -0.522411 25 26 28
-0.0904765 0.00165781 0.999094 0.853311 -0.018806 -0.521063 25 26 28
-0.0902197 0.00185813 0.998777 0.836635 -0.0147012 -0.547563 26 28 31
-0.090224 0.00186002 0.998748 0.852353 -0.0136593 -0.522789 26 28 30
-0.0901017 0.00140246 0.996822 0.847439 0.0903975 -0.52314 25 27 29
-0.0896946 0.00186293 0.999465 0.3976 -0.0573158 -0.915767 58 63 66
-0.0791406 0.00165962 1.00636 0.0826341 0.0603157 -0.994753 88 99 101
-0.0787637 0.00166677 1.00649 0.0324166 0.0988036 -0.994579 51 58 60
-0.0769805 0.00132385 1.00375 -0.605981 -0.06578 -0.792755 22 22 24
-0.0463711 0.00182184 1.03008 -0.338425 0.384658 -0.858782 19 19 18
-0.0464619 0.00202972 1.03028 -0.600867 0.147403 -0.785641 19 19 18
-0.0459998 0.00191788 1.02955 -0.168518 0.163832 -0.971988 25 24 23
-0.045547 0.00192701 1.02961 0.633098 0.174672 -0.754106 35 34 32
-0.0453635 0.00184517 1.02949 0.430348 0.164573 -0.887534 37 36 34
-0.0452044 0.00177599 1.02976 0.362779 0.0028024 -0.931871 39 38 35
-0.0449833 0.00183998 1.0296 0.385219 0.0876964 -0.918649 37 36 33
-0.0447356 0.00175611 1.02967 -0.518587 0.0608242 -0.852859 41 40 34
-0.126783 0.00496918 1.0116 0.878288 -0.175538 -0.444743 101 102 103
-0.126806 0.00499805 1.01169 0.887365 -0.158954 -0.4328 101 103 103
-0.126537 0.0046288 1.01128 0.84982 -0.132418 -0.510168 78 79 82
-0.126279 0.00484139 1.01164 0.852907 -0.114636 -0.509321 64 65 66
-0.125933 0.00476739 1.0121 0.0581032 -0.0575691 -0.996649 36 36 37
-0.125653 0.00468297 1.01307 0.897718 -0.0833351 -0.432617 33 34 35
-0.0904544 0.00205475 0.997565 0.80072 -0.0873813 -0.592631 19 21 24
-0.0904583 0.0020669 0.997673 0.746249 -0.0865598 -0.660015 20 21 24
-0.0904537 0.00206178 0.997508 0.809412 -0.0840647 -0.581193 19 20 24
-0.0904583 0.0020669 0.997673 0.746249 -0.0865598 -0.660015 20 21 24
-0.0789585 0.002027 1.00647 0.205692 0.0624737 -0.976621 83 91 93
-0.0787944 0.00231629 1.00685 0.84558 0.00654976 -0.533808 48 53 54
-0.0464818 0.00266452 1.03034 -0.617132 0.156205 -0.771199 16 16 15
-0.0462312 0.00229677 1.02975 0.268452 0.30275 -0.914481 22 21 21
-0.0462558 0.00235813 1.03024 -0.629257 0.118291 -0.768142 18 18 17
-0.0462106 0.00251325 1.03029 -0.348475 0.269227 -0.897821 23 22 22
-0.0458508 0.00255208 1.02992 -0.634147 0.127017 -0.762709 29 28 27
-0.0455526 0.00222076 1.02965 0.296001 0.0826713 -0.951603 36 35 33
-0.0453118 0.00243443 1.02953 0.335896 0.146305 -0.930467 38 37 35
-0.125988 0.00521591 1.0125 0.578125 -0.216722 -0.786641 36 37 38
-0.0904341 0.00257944 0.997512 0.797547 -0.134248 -0.58813 22 24 25
-0.0904307 0.00258519 0.997643 0.747175 -0.13867 -0.65 22 24 25
-0.0902103 0.00237403 0.998733 0.846403 -0.0368713 -0.531265 27 29 32
-0.0899543 0.00260214 0.998818 0.831927 -0.0182777 -0.554584 38 42 45
-0.089759 0.0023665 0.998955 0.837566 0.0565332 -0.543404 50 54 57
-0.0895035 0.00266875 0.999968 0.848442 -0.0212439 -0.528862 72 77 81
-0.0789659 0.00257983 1.00658 0.846332 -0.0705342 -0.527965 68 73 75
-0.0785338 0.00253693 1.00726 0.831713 -0.0988539 -0.546335 30 34 35
-0.0787245 0.00281976 1.00696 0.8339 -0.106523 -0.541538 36 39 40
-0.0455906 0.00282948 1.02986 0.0735327 0.279993 -0.957182 35 35 33
-0.0907228 0.00307544 0.998445 0.641176 0.313037 -0.700643 21 23 23
-0.0901871 0.00289868 0.998709 0.849174 -0.0234615 -0.527592 28 31 33
-0.0896994 0.00283709 0.998976 0.838551 -0.0163018 -0.544579 58 63 65
-0.0899376 0.0031531 0.999054 0.856987 0.0529636 -0.51261 44 47 48
-0.0894434 0.00314168 0.999983 0.856115 0.0522164 -0.514141 51 55 57
-0.0789218 0.00306437 1.00662 0.835984 -0.0610816 -0.545343 65 68 71
-0.0791573 0.00286735 1.00609 -0.125677 -0.0312456 -0.991579 97 102 106
-0.0784608 0.0030182 1.0072 0.829116 -0.126592 -0.544556 31 33 34
-0.0467735 0.00351071 1.02945 0.476492 -0.685588 -0.550386 14 14 14
-0.0464737 0.00352975 1.0299 0.435937 -0.192386 -0.879174 14 15 14
-0.0460516 0.0030874 1.02965 -0.0603747 0.0952328 -0.993622 23 23 22
-0.0455306 0.00330063 1.03071 0.247704 0.537556 -0.806025 35 35 33
-0.127382 0.00604118 1.01231 0.894811 -0.0708828 -0.440783 114 115 115
-0.126985 0.00631293 1.01242 0.0421899 0.0154353 -0.99899 107 109 110
-0.126044 0.00629636 1.01229 -0.201885 -0.223417 -0.953587 37 39 39
-0.0904177 0.00312951 0.997832 0.696293 -0.126064 -0.706601 24 25 26
-0.0901723 0.0034255 0.998677 0.849997 -0.0282373 -0.52603 32 34 35
-0.0896636 0.00340777 0.999691 0.85603 0.0628315 -0.513094 46 48 50
-0.0896636 0.00340777 0.999691 0.85603 0.0628315 -0.513094 46 48 50
-0.0892235 0.00337846 0.999754 0.855573 0.0534966 -0.51491 64 69 73
-0.0789151 0.00359081 1.00661 0.828493 -0.0963085 -0.551655 59 62 64
-0.0786724 0.0032851 1.0069 0.834581 -0.0650872 -0.547026 33 36 37
-0.0466229 0.00388811 1.02971 0.220032 -0.336446 -0.915636 14 14 14
-0.0463998 0.00387409 1.0291 0.66689 -0.490156 -0.561254 16 16 15
-0.0459068 0.00361866 1.03078 0.78085 -0.0917778 -0.617941 28 28 27
-0.0452626 0.0039846 1.03105 0.734312 -0.109704 -0.669889 40 38 35
-0.12678 0.0066835 1.01249 0.527322 0.121547 -0.840927 94 97 96
-0.126211 0.00665526 1.01219 0.3945 0.024623 -0.918566 39 41 41
-0.0896946 0.0037968 0.998355 0.861964 -0.062142 -0.503147 50 52 54
-0.0897552 0.00381713 0.998558 0.860738 -0.0213758 -0.508599 49 51 54
-0.0894593 0.00361315 0.999402 0.857271 0.0371764 -0.513521 62 66 70
-0.0892602 0.00381324 0.999098 0.860526 -0.0255071 -0.508768 70 73 77
-0.0892603 0.00381243 0.999088 0.860425 -0.0163533 -0.509316 70 73 77
-0.079367 0.00365095 1.00603 0.839984 -0.103847 -0.532582 77 81 84
-0.0795606 0.0039353 1.0058 0.829169 -0.150296 -0.538414 72 76 80
-0.0791137 0.0038728 1.00639 0.841063 -0.0887457 -0.533608 61 63 66
-0.0786535 0.00377498 1.0069 0.834976 -0.0324058 -0.549331 34 35 37
-0.0781929 0.00367848 1.00684 0.829306 -0.0935176 -0.550913 26 26 30
-0.0781929 0.00367848 1.00684 0.829306 -0.0935176 -0.550913 26 26 30
-0.0781929 0.00367848 1.00684 0.829306 -0.0935176 -0.550913 26 26 30
-0.046633 0.00429246 1.0293 0.395929 -0.105104 -0.912247 13 13 13
-0.0463761 0.00430242 1.02944 0.762904 -0.133107 -0.632661 17 17 16
-0.0456916 0.00436486 1.03098 0.555958 -0.327014 -0.764181 37 36 34
-0.0453966 0.00433959 1.03074 0.530083 -0.361613 -0.766973 40 39 36
-0.127298 0.00681341 1.01227 -0.512839 0.109721 -0.851444 113 115 113
-0.125885 0.00700929 1.01204 -0.520593 0.0164987 -0.853646 38 39 39
-0.090592 0.00449684 1.00427 -0.450119 -0.00108731 -0.892968 20 20 21
-0.0898912 0.00405762 0.997979 0.862512 -0.0555221 -0.502982 50 52 55
-0.0896591 0.00428889 0.998358 0.860392 -0.0784779 -0.503554 51 53 56
-0.0894804 0.00411088 0.999449 0.855547 0.0193904 -0.517362 59 62 67
-0.0892709 0.004312 0.999201 0.858241 0.032708 -0.512204 67 70 76
-0.0892709 0.004312 0.999201 0.858241 0.032708 -0.512204 67 70 76
-0.078635 0.0042631 1.00687 0.837685 -0.165937 -0.520335 32 32 35
-0.0783814 0.00439869 1.00646 0.839748 -0.100514 -0.533591 30 30 33
-0.0783814 0.00439869 1.00646 0.839748 -0.100514 -0.533591 26 26 28
-0.0458761 0.00474102 1.03074 0.266516 -0.143144 -0.953142 33 31 30
-0.0454826 0.00474337 1.03088 -0.205017 -0.0379089 -0.978024 42 39 38
-0.12794 0.00748075 1.0129 0.392237 -0.110035 -0.913259 121 122 118
-0.127173 0.00732751 1.01228 -0.510584 0.126304 -0.850501 103 106 103
-0.126226 0.00739006 1.01219 0.752082 -0.362858 -0.550187 38 39 40
-0.12168 0.00604592 0.999616 -0.490156 -0.104864 -0.865304 58 59 56
-0.121266 0.00604776 0.999394 -0.353122 0.182682 -0.917569 52 52 51
-0.0905895 0.00486127 1.0038 -0.23818 0.0341277 -0.970621 22 22 23
-0.0906205 0.00486747 1.00398 -0.315264 0.0146215 -0.948891 22 22 23
-0.0898556 0.00449462 0.997261 0.860955 -0.0778001 -0.502696 47 49 53
-0.0894913 0.00460542 0.99948 0.858218 0.0214956 -0.512836 55 57 63
-0.0796542 0.00482163 1.00625 0.845366 -0.130606 -0.517975 71 73 78
-0.0791943 0.00466214 1.00628 0.8259 -0.123579 -0.550107 59 61 65
-0.0794596 0.00445761 1.00596 0.831345 -0.13104 -0.540087 79 82 87
-0.0789339 0.00487075 1.00659 0.832906 -0.112172 -0.541927 45 48 51
-0.0785042 0.00474948 1.00645 0.825122 -0.139213 -0.547534 28 28 31
-0.0787386 0.00459457 1.00693 0.828689 -0.156163 -0.537483 40 40 44
-0.0461311 0.0050973 1.0304 -0.322957 -0.0278149 -0.946005 26 25 24
-0.0454853 0.00505083 1.03022 -0.447106 -0.105643 -0.888221 43 40 38
-0.127492 0.00765413 1.01249 -0.515911 0.0946996 -0.851392 115 117 112
-0.127078 0.00784428 1.01228 -0.51203 0.0948848 -0.85371 107 109 106
-0.126895 0.00770625 1.01217 -0.453432 0.214002 -0.865218 96 99 96
-0.126418 0.00769999 1.01189 -0.436376 0.0812662 -0.896087 71 73 70
-0.121502 0.00646357 0.999444 -0.486494 -0.154123 -0.859982 46 45 47
-0.0906067 0.00527495 1.00427 -0.275568 0.0427927 -0.960328 23 24 25
-0.0896193 0.00472447 0.997684 0.859322 -0.0616482 -0.507706 47 47 52
-0.0897298 0.0046977 0.997283 0.81134 -0.0922667 -0.577247 56 57 61
-0.0898816 0.00507668 0.997736 0.719381 0.00438217 -0.694602 53 54 58
-0.0894997 0.00500061 0.998141 0.859509 -0.0359613 -0.509853 62 64 68
-0.0892829 0.00480874 0.999243 0.858944 -0.0289923 -0.511248 81 84 91
-0.0892829 0.00480868 0.999242 0.859674 -0.0231936 -0.510316 69 71 77
-0.0890645 0.00499246 0.998918 0.859612 0.00377752 -0.510933 89 91 96
-0.079643 0.00517938 1.00525 0.849274 -0.0682602 -0.523521 83 88 93
-0.0793776 0.00498581 1.00649 0.842684 -0.136442 -0.520833 62 65 70
-0.0790662 0.00502199 1.00646 0.828265 -0.0583974 -0.557285 53 56 60
-0.0786863 0.00508262 1.00679 0.825412 -0.118117 -0.552036 30 32 35
-0.0786739 0.00507773 1.00689 0.826175 -0.107314 -0.5531 29 31 34
-0.0465694 0.00539988 1.02969 0.382756 -0.0960292 -0.918845 15 15 14
-0.04596 0.00547046 1.03055 0.225471 -0.427154 -0.875615 32 31 29
-0.0463381 0.00545552 1.03028 -0.0374005 -0.18867 -0.981328 20 19 18
-0.126929 0.00834482 1.01204 -0.521375 0.022571 -0.853029 100 101 98
-0.12663 0.00812177 1.01199 -0.433589 0.0142065 -0.900999 80 82 78
-0.121373 0.00688542 0.999359 -0.472683 -0.153149 -0.867823 53 54 51
-0.121015 0.00689739 0.999233 -0.472418 -0.0586419 -0.879422 47 47 45
-0.119627 0.00660554 0.996182 0.091905 0.577754 -0.81102 69 68 67
-0.0912036 0.00605331 1.00498 -0.537145 0.195552 -0.820509 19 19 20
-0.0907056 0.00590302 1.00492 -0.498395 0.0895683 -0.862311 24 24 25
-0.0904877 0.00541296 0.997903 -0.196486 -0.0773448 -0.977451 26 25 28
-0.0902889 0.00590492 1.00471 -0.576585 -0.467636 -0.669975 47 48 51
-0.0898234 0.00533115 0.998824 0.773731 0.0842032 -0.627894 59 61 64
-0.0892749 0.00524793 0.998595 0.85947 -0.0259258 -0.510528 79 82 86
-0.0890284 0.00550881 0.998976 0.857755 -0.0715791 -0.509051 89 91 95
-0.0801505 0.00525025 1.00232 0.719833 -0.2682 -0.640241 97 102 106
-0.079855 0.00527937 1.00153 0.801085 -0.203827 -0.562776 85 89 93
-0.0798239 0.0053377 1.00212 0.843033 -0.107055 -0.5271 81 85 89
-0.0794023 0.00531665 1.00482 0.839947 -0.143358 -0.52339 79 84 88
-0.0786455 0.00557749 1.00685 0.827472 -0.101539 -0.55225 31 34 36
-0.0464297 0.00578945 1.02983 0.205189 -0.432103 -0.878171 18 18 17
-0.0468221 0.00586833 1.02949 0.527715 -0.650304 -0.546463 13 13 12
-0.0462378 0.00589373 1.02993 -0.143952 -0.242972 -0.959293 29 27 25
-0.0461007 0.00581865 1.03013 0.139332 -0.479505 -0.866407 32 31 28
-0.0460439 0.00579554 1.03015 0.235008 -0.506099 -0.82984 34 32 29
-0.0456874 0.00581449 1.03037 0.200475 -0.373693 -0.905629 41 39 36
-0.0456156 0.00577601 1.03044 0.694688 -0.231859 -0.680918 43 40 37
-0.126972 0.0085572 1.01204 -0.526022 0.017959 -0.850281 102 102 102
-0.126392 0.00852958 1.01173 0.785847 -0.117385 -0.607177 58 59 58
-0.121211 0.00731524 0.999298 -0.492781 -0.0385586 -0.869299 70 69 67
-0.12137 0.00726743 0.999069 -0.425004 -0.0126848 -0.905103 63 62 60
-0.120797 0.0073171 0.999075 -0.493162 -0.0231182 -0.86963 43 43 42
-0.0910755 0.00626072 1.00537 -0.55578 0.149846 -0.817713 22 22 23
-0.0906914 0.00573285 0.99752 0.4636 -0.0615466 -0.883905 24 23 26
-0.0800219 0.00556355 1.00115 0.804275 -0.20369 -0.558259 87 90 94
-0.0795737 0.00560507 1.00447 0.840805 -0.160661 -0.516948 74 78 82
-0.0792458 0.00565813 1.00439 0.837445 -0.149834 -0.525581 67 71 74
-0.0795429 0.00568871 1.00402 0.83507 -0.17079 -0.522961 74 78 81
-0.0790834 0.00605895 1.00584 0.83674 -0.171676 -0.519994 52 55 55
-0.0466686 0.00624151 1.02969 0.405228 0.0760998 -0.911043 16 16 15
-0.0462807 0.00621404 1.02937 0.253279 -0.00881024 -0.967353 29 27 26
-0.0455966 0.00618037 1.0303 0.719191 0.00895996 -0.694755 42 40 37
-0.045289 0.00609764 1.02903 -0.1489 0.342607 -0.927604 41 39 35
-0.126959 0.00886513 1.01204 -0.525874 -0.0314004 -0.849982 102 102 104
-0.122257 0.00796872 1.00138 -0.501832 0.147873 -0.852232 59 59 59
-0.121566 0.00768607 0.999126 -0.478282 0.0468158 -0.876958 82 81 80
-0.121445 0.00773276 0.999431 -0.463525 -0.0212778 -0.885828 74 73 72
-0.121141 0.0077547 0.999413 -0.488682 -0.05909 -0.870459 66 65 64
-0.0908131 0.00672974 1.00496 -0.574348 0.089463 -0.813708 34 34 35
-0.0903048 0.00633014 0.998538 0.845591 -0.00778324 -0.533775 31 31 34
-0.090086 0.00608472 0.998918 0.558676 0.0243912 -0.829027 44 45 48
-0.089799 0.00628504 0.998922 0.770919 -0.0439222 -0.635417 63 64 67
-0.08926 0.00598352 0.998604 -0.390281 0.123943 -0.912315 78 81 85
-0.0801877 0.00595267 1.00162 0.815877 -0.198699 -0.543013 87 90 94
-0.0801901 0.00593956 1.00148 0.831723 -0.177647 -0.526003 89 91 96
-0.0790901 0.00620535 1.00446 0.353582 -0.450025 -0.820035 55 56 58
-0.0786902 0.00620375 1.00461 0.774521 -0.151734 -0.61408 30 31 33
-0.0782163 0.0062705 1.00544 0.782302 -0.0384305 -0.621713 21 21 23
-0.04682 0.00659608 1.02944 -0.601496 0.139433 -0.786614 15 15 15
-0.0468795 0.00691572 1.02896 0.182787 0.182945 -0.965981 15 15 14
-0.046676 0.00697418 1.02968 0.284052 0.139692 -0.948578 22 21 20
-0.0460796 0.00687734 1.02953 0.798815 0.0730948 -0.59712 36 34 32
-0.0461523 0.00659435 1.02966 -0.301953 0.213087 -0.929203 34 32 30
-0.0457405 0.00660302 1.02962 -0.343286 0.1296 -0.930246 41 39 37
-0.0454808 0.0065058 1.02913 0.0883979 0.23263 -0.96854 39 37 34
-0.127377 0.00936087 1.01219 -0.511816 0.0628616 -0.856792 114 114 113
-0.127115 0.00953792 1.01235 0.163159 0.071981 -0.983971 106 106 103
-0.126526 0.00960768 1.01191 0.349942 0.207385 -0.913527 43 44 44
-0.126742 0.00944227 1.01193 -0.522504 0.047867 -0.851292 87 88 87
-0.126063 0.00960057 1.01195 -0.106421 0.150137 -0.982921 36 36 37
-0.122472 0.00843194 1.00141 -0.500171 0.132163 -0.855781 61 60 59
-0.122754 0.00850215 1.0015 -0.470757 0.12676 -0.873109 66 65 63
-0.122219 0.00820106 1.00131 -0.603614 0.127761 -0.786974 58 58 57
-0.121722 0.00815639 0.999619 -0.430367 -0.0457212 -0.901496 79 78 76
-0.121662 0.00814571 0.999518 -0.463692 -0.0484565 -0.88467 79 78 76
-0.121242 0.00817847 0.999619 -0.265082 -0.0934517 -0.959686 64 63 62
-0.120793 0.00813476 0.999017 -0.486279 -0.232401 -0.842332 70 70 69
-0.120628 0.00822411 0.999727 -0.623575 -0.00405766 -0.781753 29 30 29
-0.120628 0.00822411 0.999727 -0.623575 -0.00405766 -0.781753 29 30 29
-0.0907524 0.00723562 1.00496 -0.577508 0.0695122 -0.81342 32 34 35
-0.0908687 0.00697264 1.00461 -0.576969 0.0741276 -0.813395 20 21 21
-0.0905267 0.0065803 0.998254 0.841268 -0.0874711 -0.533495 23 24 26
-0.0895081 0.00667742 0.998385 -0.219146 -0.119257 -0.968376 71 74 78
-0.0893133 0.00672176 0.998718 -0.126941 -0.0623145 -0.989951 78 83 87
-0.0799295 0.00621007 1.00132 0.835006 -0.0195899 -0.549892 84 86 91
-0.0795183 0.00624296 1.00184 0.359644 -0.128209 -0.92424 88 91 93
-0.0791145 0.00639597 1.00398 0.845494 -0.037185 -0.532689 69 71 74
-0.0784544 0.00657894 1.00564 0.615352 0.239006 -0.751145 26 28 29
-0.0781354 0.00686646 1.0061 0.839853 -0.0902893 -0.535253 21 21 23
-0.0476403 0.0069837 1.02541 -0.536308 0.250525 -0.805984 14 14 14
-0.0463004 0.00724571 1.02954 0.121793 0.134624 -0.983383 29 28 27
-0.0458744 0.00724489 1.02959 0.57291 0.206286 -0.793234 41 40 38
-0.127098 0.0097102 1.0121 -0.516301 0.0916369 -0.85149 106 106 102
-0.126713 0.0100279 1.01194 -0.491242 -0.127533 -0.861636 80 82 79
-0.12294 0.00892815 1.00163 -0.315551 0.154943 -0.936173 85 83 81
-0.122609 0.00895192 1.00166 -0.527202 -0.0342737 -0.849049 82 81 78
-0.122075 0.0087326 1.00092 -0.513845 -0.203201 -0.83347 57 58 54
-0.121507 0.00861346 0.999986 -0.480317 -0.267926 -0.835171 51 52 49
-0.121109 0.00856845 0.999347 -0.389865 -0.474382 -0.789282 46 46 44
-0.118522 0.00779878 0.994468 0.65237 -0.284327 -0.702547 66 66 64
-0.118495 0.00794854 0.995251 0.343846 0.0332154 -0.938438 29 29 29
-0.0906661 0.00773673 1.00495 -0.569283 0.0923504 -0.816939 38 39 40
-0.0907674 0.00748473 1.00454 -0.582404 0.0224387 -0.81259 32 33 34
-0.0907937 0.00747485 1.00458 -0.580452 0.038833 -0.813368 31 33 33
-0.0902996 0.00680449 0.99844 0.808075 0.0187585 -0.588781 33 35 38
-0.090477 0.00705832 0.998254 0.841121 -0.095234 -0.532395 24 26 28
-0.089475 0.00698162 0.997896 -0.299712 -0.190131 -0.934892 70 73 77
-0.0893104 0.00703267 0.998288 -0.168101 -0.19647 -0.965993 76 80 84
-0.0891997 0.00700936 0.998028 0.581453 -0.362203 -0.728506 74 77 82
-0.0890258 0.00705879 0.998464 0.748202 -0.441838 -0.494947 84 89 94
-0.0796015 0.00684377 1.00359 0.830801 -0.0397211 -0.555151 76 78 82
-0.0792626 0.00678922 1.00378 0.817774 -0.143783 -0.55729 77 80 83
-0.0786009 0.00691495 1.00547 0.818466 0.0222784 -0.574123 35 37 38
-0.0783475 0.00713067 1.00577 0.846693 -0.0491996 -0.529803 19 19 21
-0.0478436 0.00738785 1.02585 -0.587946 0.443085 -0.676753 15 15 15
-0.0461634 0.00763403 1.02985 -0.629878 0.165838 -0.758783 32 31 29
-0.0454838 0.00775128 1.02933 -0.191398 0.316879 -0.928953 45 42 38
-0.0456695 0.00740691 1.0297 0.19402 0.261334 -0.945548 43 42 39
-0.127735 0.00996398 1.00854 0.889064 -0.0917084 -0.448502 116 119 115
-0.1275 0.0103921 1.01182 0.902998 -0.0530555 -0.426357 95 96 94
-0.127136 0.0102243 1.01206 -0.526302 -0.0605571 -0.848139 104 105 102
-0.127051 0.0102174 1.01207 -0.53081 -0.116615 -0.839429 99 101 98
-0.126445 0.0103479 1.01185 -0.254992 -0.0755301 -0.963989 43 44 45
-0.122709 0.00935192 1.00152 -0.605521 0.0764945 -0.792144 63 63 61
-0.121463 0.00900018 0.999756 -0.183563 -0.174561 -0.967385 51 51 50
-0.120921 0.0087938 0.999273 -0.594738 0.0847477 -0.799441 44 45 43
-0.0903087 0.00727708 0.998132 0.721949 0.0673084 -0.688664 30 33 35
-0.090284 0.00794812 1.0047 -0.570005 0.0641636 -0.819132 53 54 56
-0.0896449 0.00733177 0.997785 -0.334872 -0.377045 -0.863538 64 67 70
-0.0890909 0.00737697 0.998126 0.66886 -0.585445 -0.458128 84 87 92
-0.0892888 0.00734233 0.997754 -0.132027 -0.199289 -0.971006 75 79 83
-0.079747 0.00723356 1.00334 0.460277 -0.315511 -0.829818 89 92 97
-0.0795124 0.00741995 1.00365 0.844558 -0.00490662 -0.535442 87 89 94
-0.0794919 0.00742326 1.00316 0.677665 0.0355141 -0.734513 74 77 82
-0.0785427 0.00743742 1.00594 0.824636 -0.0726229 -0.560983 28 29 30
-0.0783047 0.00757199 1.0055 0.842423 -0.0954797 -0.53029 22 22 23
-0.0465951 0.00815766 1.02976 0.786085 -0.0426329 -0.616646 18 18 17
-0.0465042 0.00829013 1.02982 -0.145417 -0.0508143 -0.988065 20 20 19
-0.0460962 0.00818407 1.02999 -0.0379513 0.0162605 -0.999147 35 33 31
-0.0456931 0.00821627 1.03011 0.679784 -0.104297 -0.725959 45 43 39
-0.127578 0.0104056 1.00772 0.887521 -0.153149 -0.434571 129 129 124
-0.127582 0.0104932 1.00793 0.775612 -0.202679 -0.597785 127 127 122
-0.127134 0.0107345 1.01207 -0.531405 -0.0844058 -0.842902 104 107 104
-0.126806 0.0105523 1.01199 -0.530878 -0.0646314 -0.84498 66 69 68
-0.126835 0.0106813 1.01189 0.238369 -0.0778195 -0.968052 74 76 75
-0.12631 0.0107448 1.0119 -0.227388 0.0457889 -0.972727 35 36 38
-0.125327 0.0103266 1.01029 -0.481882 0.0681904 -0.873579 35 35 37
-0.125296 0.0104421 1.01047 -0.525769 0.0314009 -0.850047 34 34 36
-0.120577 0.0092259 0.996275 -0.435545 0.227876 -0.870846 72 73 68
-0.120501 0.00882901 0.996261 -0.441013 0.21469 -0.871445 71 72 67
-0.0910579 0.00837514 1.00477 -0.308959 0.0825957 -0.947482 20 20 20
-0.0907946 0.00840652 1.00498 -0.550066 0.0833469 -0.830952 21 21 21
-0.0901687 0.00839602 1.00438 -0.514674 -0.0314077 -0.85681 51 53 55
-0.0898661 0.00779355 0.997611 -0.465323 -0.215665 -0.858465 50 51 56
-0.0895033 0.00766956 0.997478 -0.55016 -0.179233 -0.815598 70 71 76
-0.0890954 0.00768786 0.997629 0.562632 -0.15327 -0.812375 79 81 86
-0.0797707 0.00765903 1.00328 0.402906 -0.284828 -0.869793 92 95 99
-0.0795054 0.00790096 1.00366 0.81274 -0.0293025 -0.581889 88 89 95
-0.0784559 0.0079193 1.00583 0.841556 -0.155071 -0.517433 24 24 25
-0.0469895 0.00863796 1.03085 0.171717 -0.0578583 -0.983446 21 21 20
-0.0462464 0.00857401 1.03025 0.282449 -0.150274 -0.947439 34 32 30
-0.0456171 0.00832977 1.03019 0.7951 -0.173079 -0.581257 45 43 39
-0.12745 0.0109337 1.00748 0.850599 -0.114016 -0.513305 126 124 122
-0.127791 0.0107697 1.00807 0.81733 -0.117236 -0.564117 125 125 121
-0.127239 0.0106037 1.00736 0.835738 -0.165284 -0.523664 126 127 122
-0.127184 0.0112184 1.01173 0.63018 0.0520092 -0.774705 107 108 105
-0.126787 0.0110422 1.01171 -0.411105 -0.0682936 -0.909026 66 69 65
-0.126108 0.0111328 1.0119 -0.264413 -0.127513 -0.955943 37 37 38
-0.121893 0.00995053 0.999221 -0.483823 0.0249014 -0.874812 52 52 51
-0.120836 0.00957315 0.996073 -0.426875 0.156645 -0.89064 90 89 85
-0.120749 0.00964275 0.996463 -0.460047 0.119316 -0.879841 74 75 71
-0.0910905 0.00870506 1.00456 -0.540949 0.210572 -0.814269 19 20 20
-0.0908107 0.00889759 1.00484 -0.562762 0.0380701 -0.825742 22 22 23
-0.0906484 0.00866035 1.005 -0.370388 0.0929912 -0.924211 23 24 25
-0.0901009 0.00889275 1.00427 -0.584843 0.0198925 -0.810903 57 59 62
-0.089865 0.00812937 0.997154 -0.551462 -0.150757 -0.820465 51 52 58
-0.0896575 0.00813184 0.997486 -0.551979 -0.154317 -0.819455 65 65 71
-0.0894571 0.00805136 0.997647 0.00559849 0.0458761 -0.998931 78 78 84
-0.0889885 0.00805837 0.997242 0.232309 0.0855235 -0.968875 82 83 90
-0.078415 0.00841107 1.00578 0.847221 -0.0727485 -0.526236 23 23 25
-0.0784083 0.00844341 1.00571 0.848086 -0.0762144 -0.52435 23 24 26
-0.0782329 0.00808527 1.00549 0.847959 -0.0686568 -0.525596 21 21 22
-0.0468301 0.00896147 1.03043 0.170268 0.0888467 -0.981384 21 20 19
-0.0464155 0.00894639 1.0303 0.100084 0.13251 -0.986116 29 28 26
-0.0456553 0.00902831 1.02978 -0.0905763 0.436518 -0.895124 47 44 39
-0.127048 0.0117177 1.01202 -0.513583 0.0967757 -0.852565 98 97 94
-0.12685 0.0114584 1.01188 -0.496424 0.0383871 -0.867231 73 75 69
-0.126089 0.0114706 1.01145 -0.466817 0.0440271 -0.883257 37 37 37
-0.12533 0.0114275 1.01146 0.0418973 0.675469 -0.736198 32 32 33
-0.121478 0.00995301 0.999006 -0.484309 0.0211343 -0.874642 40 40 41
-0.120933 0.0100589 0.996606 -0.472637 0.099055 -0.875672 79 79 74
-0.0914176 0.00906547 1.00493 -0.446704 0.0883927 -0.890305 18 18 19
-0.0910932 0.0092246 1.00479 -0.468671 0.105804 -0.877014 19 20 20
-0.0910498 0.00921796 1.00471 -0.415713 0.115605 -0.902119 19 20 20
-0.0912864 0.00917756 1.0045 -0.557286 0.120872 -0.821476 18 19 19
-0.0912864 0.00917756 1.0045 -0.557286 0.120872 -0.821476 18 19 19
-0.0907891 0.00940455 1.00479 -0.521128 0.12182 -0.84474 20 20 22
-0.0904501 0.00915307 1.00457 -0.582801 -0.00720649 -0.812583 42 44 46
-0.0897631 0.00859287 0.997436 -0.361197 -0.142938 -0.921469 58 60 64
-0.0895298 0.00848836 0.997524 -0.539945 -0.1056 -0.83505 70 72 77
-0.0895232 0.00862926 0.997607 -0.53527 -0.181621 -0.824924 71 74 78
-0.0892144 0.00839563 0.997586 -0.513744 -0.0209563 -0.857688 81 84 89
-0.0890953 0.00869377 0.997822 -0.555216 -0.0661379 -0.829072 98 101 107
-0.0794886 0.00851897 1.00438 0.839161 -0.0124313 -0.543742 83 84 90
-0.079413 0.00853787 1.00413 0.845806 0.0307779 -0.532602 79 81 86
-0.0781906 0.00857998 1.00548 0.843115 -0.0874803 -0.530569 20 21 23
-0.0781906 0.00857984 1.00548 0.843331 -0.0875249 -0.53022 20 21 23
-0.0781906 0.00857984 1.00548 0.843331 -0.0875249 -0.53022 20 21 23
-0.0781751 0.00859796 1.00538 0.844949 -0.114961 -0.522345 20 21 23
-0.0470128 0.00936243 1.03078 -0.256996 0.391589 -0.883522 21 20 19
-0.127491 0.011675 1.00655 0.810122 -0.18604 -0.555961 132 133 130
-0.127616 0.012134 1.01222 -0.505018 0.0713204 -0.860157 121 120 115
-0.127143 0.012129 1.01194 -0.446002 0.11913 -0.887068 106 105 101
-0.125415 0.0118644 1.01134 -0.145608 -0.804652 -0.575616 33 33 35
-0.122178 0.0108517 1.00152 -0.45801 -0.194876 -0.867324 66 67 64
-0.120831 0.0101231 0.996938 -0.451985 -0.00743334 -0.891994 72 72 70
-0.121323 0.0105465 0.999267 -0.476376 -0.185572 -0.859435 56 56 57
-0.120708 0.0104815 0.996544 -0.475185 0.0883017 -0.875444 84 84 81
-0.0910654 0.00958797 1.00445 -0.477641 0.0958133 -0.873315 19 19 21
-0.0907432 0.00965499 1.00425 -0.521652 0.16241 -0.837557 31 32 34
-0.0904216 0.00965268 1.00451 -0.579954 0.00369802 -0.814641 42 44 47
-0.0897166 0.00970685 1.004 -0.588605 -0.0532736 -0.806663 71 75 80
-0.0900627 0.00939707 1.00425 -0.580071 0.0364235 -0.813751 57 60 64
-0.0894982 0.00884802 0.997824 -0.552801 -0.0630498 -0.830925 73 76 79
-0.0896174 0.00899153 0.997546 -0.551757 -0.0510242 -0.832443 67 69 72
-0.0892338 0.00886504 0.997586 -0.540885 -0.0657196 -0.838525 78 82 86
-0.0793275 0.00870404 0.999489 0.823791 -0.0588684 -0.563829 69 72 74
-0.078584 0.00929024 1.00569 0.799139 -0.12367 -0.588288 24 24 25
-0.0783833 0.00895613 1.00577 0.845418 -0.0494394 -0.531812 22 22 24
-0.078135 0.00910944 1.00521 0.841741 -0.148258 -0.519126 21 21 23
-0.0468 0.00969959 1.03012 0.55595 0.127188 -0.821427 24 22 21
-0.0465943 0.00994221 1.02983 0.600764 -0.101872 -0.792909 28 27 25
-0.0468622 0.00983307 1.03026 0.463193 0.229683 -0.855978 18 17 16
-0.0460572 0.0097964 1.03025 0.804927 -0.126667 -0.579696 44 41 38
-0.0457627 0.0100094 1.03057 0.80605 -0.119824 -0.579591 47 43 39
-0.127112 0.0119713 1.00721 0.901933 0.00866501 -0.431789 122 121 118
-0.126961 0.0122381 1.01204 -0.515553 0.0805534 -0.853063 89 88 86
-0.126144 0.0121768 1.0112 -0.215664 -0.162659 -0.962825 41 41 41
-0.12597 0.0122246 1.01159 -0.521513 0.0142155 -0.853125 38 38 39
-0.125049 0.0121948 1.011 0.0928795 0.0903262 -0.991572 35 35 36
-0.12171 0.0108623 0.998932 -0.37748 -0.183708 -0.907613 59 59 57
-0.121166 0.010963 0.999111 -0.488097 -0.171434 -0.855787 55 55 54
-0.12101 0.0108527 0.998672 -0.492541 -0.0326518 -0.869676 55 55 55
-0.120963 0.010928 0.999075 -0.492069 -0.0272617 -0.870129 59 60 58
-0.12063 0.010534 0.996842 -0.490868 -0.0261351 -0.870842 80 80 78
-0.120192 0.0105309 0.996577 -0.485062 0.000337124 -0.87448 70 70 69
-0.0907439 0.00983237 1.00311 0.373374 -0.658981 -0.652943 20 20 21
-0.0906841 0.00989357 1.00382 -0.427722 -0.0385473 -0.903088 32 33 35
-0.0900889 0.00993204 1.00426 -0.587812 -0.0450089 -0.807744 57 59 63
-0.0903928 0.0101425 1.00436 -0.563986 -0.0376326 -0.824927 44 46 48
-0.0900646 0.00993781 1.00424 -0.588244 -0.0265534 -0.808247 58 60 64
-0.0895533 0.00932793 0.997825 -0.538268 0.00673449 -0.842747 89 91 95
-0.089291 0.00933949 0.997586 -0.510344 0.125573 -0.850753 74 78 80
-0.0892063 0.00920959 0.997944 -0.537005 -0.00152921 -0.843578 77 80 85
-0.080106 0.00905552 1.00067 0.702416 -0.249082 -0.666761 85 89 92
-0.079829 0.00902078 1.00005 0.731722 -0.319175 -0.602254 85 88 90
-0.0783315 0.00945245 1.00524 0.845694 -0.108721 -0.522477 22 22 25
-0.0783504 0.00948344 1.00527 0.810774 -0.17627 -0.558188 22 23 25
-0.0780729 0.00963282 1.00499 0.822595 -0.169937 -0.542641 19 19 21
-0.0780776 0.0096019 1.00473 0.838308 -0.155003 -0.522699 19 19 22
-0.0780697 0.00964122 1.00508 0.814551 -0.180506 -0.551293 18 19 21
-0.0780766 0.0096045 1.00476 0.840147 -0.151645 -0.520727 19 19 22
-0.0470669 0.0102815 1.02917 0.738747 -0.364596 -0.566853 16 16 15
-0.0469274 0.0102235 1.02971 0.755545 -0.239947 -0.609571 16 16 15
-0.0462628 0.0101052 1.03001 0.669539 -0.198718 -0.715702 38 36 33
-0.0458676 0.0105798 1.03117 0.567608 -0.628762 -0.531488 49 45 39
-0.12734 0.0121026 1.00609 0.768624 -0.184656 -0.61247 130 129 125
-0.127057 0.0123351 1.00627 0.684784 0.0329121 -0.728002 125 125 120
-0.126904 0.0128047 1.0119 -0.529279 -0.0119027 -0.848364 90 90 85
-0.125968 0.0126749 1.01166 -0.496285 0.00439878 -0.868149 37 37 38
-0.121906 0.0112418 0.998882 -0.415331 -0.173721 -0.892929 88 87 84
-0.121608 0.0112662 0.998914 -0.439408 -0.0810784 -0.894621 62 63 61
-0.121228 0.0112746 0.998777 -0.49167 -0.0336822 -0.87013 29 31 31
-0.120166 0.0109022 0.996276 -0.461647 -0.156106 -0.87322 75 75 73
-0.0905547 0.0104257 1.00383 -0.28993 -0.00456369 -0.957037 38 38 40
-0.0907727 0.0104592 1.00439 -0.578202 0.0624073 -0.813504 22 23 24
-0.0894632 0.0096238 0.998133 -0.531798 0.114745 -0.839061 89 92 95
-0.089607 0.00950534 0.997457 -0.510466 0.180577 -0.840724 66 70 71
-0.0891348 0.00954473 0.997863 -0.342039 0.100276 -0.93432 79 83 86
-0.0889007 0.00960169 0.99819 -0.312605 0.0868601 -0.945903 91 95 99
-0.079972 0.0092484 0.998469 0.754614 -0.234161 -0.612966 95 98 103
-0.0795012 0.00944264 0.998804 -0.570597 -0.0199233 -0.820989 79 82 85
-0.0782963 0.00985009 1.00362 0.840664 -0.093127 -0.53349 32 33 35
-0.0479116 0.0106877 1.02874 0.148081 -0.223619 -0.963362 18 18 18
-0.0468395 0.0106649 1.02958 0.678394 -0.151463 -0.718916 17 16 16
-0.0468975 0.0107113 1.0297 0.566872 -0.528284 -0.632118 16 16 16
-0.04626 0.0109682 1.03038 0.113866 -0.530381 -0.840078 39 36 33
-0.127259 0.0134643 1.0119 -0.48494 0.152868 -0.861083 108 108 101
-0.127593 0.0133336 1.01221 -0.464596 0.191408 -0.864588 117 117 110
-0.126562 0.0130774 1.01152 -0.179344 -0.164273 -0.969974 47 47 49
-0.126185 0.0131152 1.01177 -0.498005 -0.0129687 -0.867077 39 39 41
-0.121821 0.0116694 0.998967 -0.489763 -0.121588 -0.863336 80 82 80
-0.121445 0.011679 0.998808 -0.491952 -0.0984238 -0.865041 31 35 37
-0.121326 0.0117584 0.999162 -0.480579 -0.12194 -0.868432 52 55 55
-0.120401 0.0113069 0.996319 -0.436457 0.0507303 -0.898294 79 81 78
-0.0908827 0.0110051 1.00495 -0.510556 0.182932 -0.840159 23 23 24
-0.0909206 0.0110175 1.00502 -0.559293 0.152439 -0.814834 22 23 23
-0.0907813 0.010743 1.00403 -0.399085 -0.0889915 -0.912585 21 21 22
-0.0907573 0.0107714 1.00394 -0.377035 0.0841497 -0.922368 22 22 23
-0.0907863 0.0107441 1.00404 -0.412499 -0.0851242 -0.906972 21 21 22
-0.0907529 0.0107705 1.00393 -0.378976 0.0883366 -0.921181 22 22 23
-0.0903925 0.01062 1.00421 -0.569334 0.0361005 -0.821313 45 46 48
-0.0903911 0.0105955 1.00419 -0.535355 0.038047 -0.84377 46 46 48
-0.0897637 0.0106896 1.00425 -0.561898 0.137643 -0.815675 81 83 85
-0.0895496 0.0100308 0.998375 -0.5313 0.123655 -0.838111 74 78 79
-0.0890094 0.0100175 0.998082 -0.51809 -0.203939 -0.830657 88 92 95
-0.0795032 0.00992327 0.998772 -0.570135 0.0152305 -0.82141 77 78 81
-0.0785778 0.0100722 1.00291 0.845762 -0.106855 -0.522751 21 21 23
-0.0783238 0.0102434 1.00259 0.843627 -0.134099 -0.519915 19 18 21
-0.078514 0.0100666 1.00269 0.8199 -0.157376 -0.550452 20 20 23
-0.0782656 0.0102748 1.00294 0.844804 -0.118163 -0.521865 19 19 21
-0.0780772 0.00997948 1.00301 0.840115 -0.132768 -0.525908 34 34 36
-0.0480147 0.011036 1.02862 0.513841 -0.618125 -0.594886 17 17 16
-0.0476451 0.0112784 1.02839 0.285178 -0.507206 -0.813275 20 20 20
-0.0476189 0.0109028 1.02889 0.641174 -0.00541525 -0.767376 18 18 18
-0.0470746 0.0111949 1.02997 0.580824 -0.0368319 -0.813195 17 17 16
-0.0470285 0.0109879 1.02961 0.681032 -0.0918263 -0.726473 16 16 16
-0.0465831 0.0110326 1.0299 0.400267 -0.571934 -0.716015 30 28 26
-0.0467603 0.0111341 1.02946 0.744605 -0.141248 -0.65239 25 24 23
-0.0462949 0.0112538 1.0303 0.598424 -0.451897 -0.661572 41 38 34
-0.0456221 0.0112553 1.03022 0.788939 -0.179506 -0.587667 50 45 38
-0.127866 0.0131445 1.00453 0.897795 -0.0824151 -0.432633 134 131 128
-0.128112 0.0128927 1.0042 0.885337 -0.0617071 -0.460838 133 131 128
-0.127622 0.0127734 1.00427 0.893755 -0.14854 -0.423247 133 131 127
-0.127572 0.0138063 1.01206 -0.513629 0.0875408 -0.853535 116 117 108
-0.126388 0.01348 1.01171 0.253032 -0.0224778 -0.967197 36 36 38
-0.125993 0.0134824 1.01184 -0.500488 0.123171 -0.856937 37 37 38
-0.120618 0.0117172 0.996464 -0.4695 0.0289793 -0.882457 82 83 81
-0.119759 0.0116648 0.995996 -0.0444456 -0.454919 -0.889423 69 72 72
-0.0908472 0.0115076 1.00501 -0.551433 0.0723436 -0.831076 21 22 22
-0.0909416 0.0112413 1.00459 -0.545651 0.112176 -0.83047 34 35 36
-0.0903213 0.0111682 1.00432 -0.54061 0.0735002 -0.838056 50 50 52
-0.0903108 0.0110861 1.00439 -0.571618 0.0545324 -0.818706 51 52 53
-0.0903135 0.0111287 1.00434 -0.558874 0.0932102 -0.823997 50 51 52
-0.0897122 0.0111948 1.00425 -0.577994 0.0574039 -0.814019 83 84 85
-0.0894386 0.010508 0.998375 -0.531104 0.123868 -0.838204 81 83 85
-0.0796329 0.0103203 1.00031 0.65251 -0.155579 -0.741637 72 74 78
-0.0792106 0.0105488 1.00242 0.829056 -0.194878 -0.524107 79 80 87
-0.0792106 0.0105488 1.00242 0.829056 -0.194878 -0.524107 65 66 71
-0.0787875 0.010376 1.00254 0.810184 -0.213152 -0.546049 41 42 46
-0.0789468 0.0106689 1.0022 0.813032 -0.221091 -0.538607 49 49 54
-0.0785107 0.0106096 1.00288 0.847536 -0.0911265 -0.522857 19 19 22
-0.0780068 0.0104486 1.00268 0.846101 -0.107577 -0.522055 36 36 38
-0.0479818 0.0114647 1.02869 0.465979 -0.733301 -0.49511 17 17 17
-0.0476384 0.011709 1.02869 0.745185 -0.361673 -0.56026 17 17 17
-0.0468994 0.0115313 1.02975 0.400506 -0.0827515 -0.91255 24 22 21
-0.0464505 0.0115306 1.02974 0.806078 -0.123539 -0.578771 32 31 27
-0.0456495 0.0114525 1.03006 0.768363 -0.168153 -0.61753 48 45 38
-0.0459822 0.0114055 1.03003 0.802253 -0.160395 -0.575034 48 45 39
-0.0456667 0.0114377 1.0299 0.628252 -0.20199 -0.751332 51 48 41
-0.128252 0.0137161 1.00556 0.872386 -0.166736 -0.459502 128 126 122
-0.127594 0.0133643 1.00455 0.894288 -0.0900061 -0.438348 128 127 124
-0.127931 0.0141079 1.0123 -0.520019 0.0531859 -0.852497 119 120 112
-0.127233 0.0140185 1.012 -0.509866 0.0551705 -0.858483 104 105 97
-0.126734 0.01419 1.01178 0.342125 -0.130544 -0.930542 63 63 62
-0.1208 0.0122153 0.99704 -0.473665 0.0974538 -0.875297 75 74 71
-0.120796 0.0122144 0.997032 -0.470876 0.105304 -0.875892 75 74 71
-0.0911099 0.0117887 1.00511 -0.552134 0.0629696 -0.831374 33 34 35
-0.0907233 0.0114795 1.00473 -0.287439 0.111709 -0.951262 22 22 23
-0.0902591 0.0116827 1.00429 -0.57787 0.0508387 -0.814544 60 61 63
-0.0898629 0.0114536 1.00412 -0.577726 0.0724107 -0.813013 76 77 79
-0.0894791 0.0116626 1.00387 -0.570114 0.11423 -0.813585 87 89 90
-0.0795292 0.0108829 1.00257 0.311177 -0.0573923 -0.948617 73 75 81
-0.0796907 0.0107655 0.999392 0.835229 -0.0158464 -0.549674 72 74 79
-0.0793923 0.0104225 0.999367 0.819595 -0.0995249 -0.564232 68 69 75
-0.078686 0.0107825 1.0019 0.819159 -0.236855 -0.522377 40 40 45
-0.0787327 0.0108914 1.00231 0.803006 -0.19535 -0.563044 40 40 44
-0.0784036 0.0109576 1.00227 0.828589 -0.182924 -0.529131 19 19 22
-0.0776108 0.010976 1.00576 0.845329 -0.111124 -0.522562 17 17 18
-0.0473782 0.0119101 1.0297 0.589189 -0.317065 -0.743187 21 20 19
-0.0473575 0.0117225 1.02829 0.701877 -0.461367 -0.542687 11 12 12
-0.0469189 0.0118775 1.02943 0.749065 -0.0307052 -0.661785 24 23 21
-0.0459252 0.0122501 1.03063 -0.00938335 -0.48557 -0.874148 49 46 41
-0.046175 0.0122022 1.03069 0.640607 -0.0252147 -0.767454 42 39 35
-0.0455382 0.0120008 1.03186 0.659345 -0.386623 -0.644816 52 48 41
-0.127847 0.0139729 1.00528 0.889926 -0.0971397 -0.445641 130 128 125
-0.127836 0.0139841 1.0053 0.88337 -0.0975251 -0.458417 130 128 125
-0.127835 0.013984 1.0053 0.883301 -0.0952886 -0.459021 132 130 126
-0.127176 0.0145372 1.012 -0.521039 0.0278554 -0.853078 102 103 98
-0.12264 0.0134694 1.00253 -0.52814 -0.00979903 -0.849101 63 62 64
-0.121675 0.0128682 0.998841 -0.409766 0.0970777 -0.90701 63 61 60
-0.121647 0.0128541 0.998877 -0.421562 0.14542 -0.895063 62 59 58
-0.121679 0.012869 0.998855 -0.436975 0.0949052 -0.894453 79 77 76
-0.0925805 0.0124925 1.00622 -0.56107 0.134388 -0.816787 20 20 21
-0.0914536 0.0120811 1.00539 -0.551754 0.0545174 -0.832223 30 32 32
-0.0914288 0.012284 1.00482 -0.549377 0.0241057 -0.835227 26 27 27
-0.0914573 0.0123313 1.00483 -0.563204 0.117847 -0.817871 25 26 26
-0.0905844 0.011965 1.00452 -0.581207 0.0421055 -0.812665 41 43 45
-0.0901651 0.0122329 1.00432 -0.580529 0.0149731 -0.814102 66 70 71
-0.0901819 0.0121868 1.00427 -0.57556 0.0813254 -0.813706 65 68 69
-0.0898056 0.0119606 1.00413 -0.578362 0.0675581 -0.812978 81 84 85
-0.0896511 0.0121046 1.00418 -0.562476 -0.0199193 -0.826574 86 90 91
-0.0894181 0.0119202 1.00438 -0.363105 0.0445512 -0.930683 89 93 94
-0.0894181 0.0119202 1.00438 -0.363105 0.0445512 -0.930683 89 93 94
-0.0893271 0.0118995 1.00418 -0.581579 0.0508555 -0.811898 89 93 94
-0.0799312 0.0111752 1.00051 0.842901 0.000671849 -0.538068 86 87 94
-0.0799067 0.0111461 1.0005 0.84219 0.00434335 -0.539164 86 87 94
-0.0798939 0.0111159 1.00027 0.809137 0.0222652 -0.587198 86 87 93
-0.0797101 0.0112457 0.999375 0.831138 0.0329597 -0.555089 87 90 95
-0.0794718 0.0109978 0.999564 0.814525 0.0635334 -0.576639 64 65 71
-0.0786203 0.0113537 1.0023 0.806792 -0.176281 -0.563925 24 24 27
-0.078819 0.0111388 1.00221 0.838402 -0.172327 -0.517094 49 50 54
-0.0788075 0.0111505 1.00226 0.837106 -0.161471 -0.522666 48 49 53
-0.0788075 0.0111505 1.00226 0.837106 -0.161471 -0.522666 48 49 53
-0.0784722 0.011096 1.0023 0.827495 -0.175323 -0.533398 21 21 23
-0.078549 0.0112562 1.00191 0.821443 -0.208275 -0.530898 24 25 28
