ply
format ascii 1.0
element vertex 706
property double x
property double y
property double z
property uchar red
property uchar green
property uchar blue
end_header
-0.6178040607115058 0.9881867839085908 2.1244458074848409 32 36 35
1.0157085114316704 0.7120664471274016 2.1028188343242666 18 14 15
0.8017585535959175 0.6879363333723428 2.1335319879289782 94 61 80
3.9635554793568759 -0.7575912385826903 3.0071967497072714 113 120 126
0.7290995789966663 0.7304918076075620 2.1190702119524065 87 28 48
-0.4000144511699372 -0.0632273151959985 3.1127369719304174 65 27 48
-0.2096887705886088 0.6075115208444155 2.3632409682504050 41 28 22
0.7727961150268702 0.6887712643873150 2.1362101731976399 91 65 78
0.6685000528275004 0.8236874520380204 2.0456227202298805 105 102 113
2.7892119646725293 -0.2894218167274158 2.7748894633060619 95 34 67
0.6332251273174004 0.6464345378930660 2.2236629482508170 100 93 101
0.7117972189480464 0.7817000978600170 2.0675825000586969 76 29 47
0.3190068320696006 1.0744211104020061 1.8813539798507182 78 35 55
2.8534625577916559 -0.2278536144652433 2.6609165773917272 71 29 53
-0.2405522947797050 0.7924825332775881 2.2487780090864335 73 45 57
0.0487167506190247 -0.5153126476375650 2.3944423685358367 28 40 40
-0.2411110654443092 0.7927353089280729 2.2487381125060182 73 45 57
0.3779868488452438 0.8459450022736961 2.0958147669657468 108 92 103
0.2221552055312114 1.0806617690881877 1.8764002315109016 46 31 34
1.9912148882964551 0.0295534531596811 2.5941782613384996 73 34 37
0.3752386744094961 0.8739561603297672 2.0680663950505713 80 33 53
0.4484668634128808 0.9792169546343543 1.8838137393214067 70 25 46
-0.1853370497400282 0.8868865928532006 2.1490416115933675 99 95 109
-0.4778667889861251 0.4385234186403215 2.6186256023537822 32 36 35
-0.2826299191329165 0.5505275066169595 2.4861458036931006 93 56 73
1.0641719227103636 0.3928710416454634 2.4076548746371689 73 31 32
-0.2806255278468406 0.8298973926535763 2.2189733819677588 124 124 132
0.1415118709924537 1.1333273519170062 1.8575779002900952 82 95 111
0.2022655052757003 0.9645620959517023 2.0067317712838331 112 98 115
0.9733262139923938 0.4763012252945554 2.3385585003422311 70 22 34
-0.3028843196428735 0.8680247978190733 2.1870736999682419 99 48 67
-0.0420091593453635 1.0771580470908548 1.9416340300030752 25 20 24
0.0151119956637337 0.9189046396288068 2.0864571048209042 86 100 100
0.7854029275564987 0.5601565897551773 2.2588090448706977 98 62 76
-0.4926959494221199 0.9139630663056320 2.1521117051936272 103 41 62
0.0825076180538684 0.9683433310684677 2.0221168019309768 88 104 104
-0.6290416550097571 1.0247230693048257 2.0872632696212743 26 20 22
-0.1306182129611744 0.8494251729190222 2.1752310275519791 69 69 71
-0.1880209714527013 0.8384656008572569 2.1943591935718714 90 89 105
-0.4089503096259854 1.2861640414961937 1.8128873893460336 61 25 35
-0.4284659809870001 0.9062330757897079 2.1691131346124606 78 25 43
-0.2437687408973371 1.1222621097761860 1.9314361669359330 94 103 112
-0.8909333341497971 0.8358548896727231 2.3105485061991304 26 21 25
-0.8916252935892343 0.8358463905860969 2.3101103015108548 26 21 25
-0.2969212953324855 1.2854147897014694 1.7997256445664938 123 98 91
-0.8455826773788145 0.9227781544571704 2.2125268507855638 78 78 80
-0.8143421415369626 0.9496600571344899 2.1808873815500109 38 42 41
-0.3182228992478071 1.3216442819209233 1.7714982510159727 54 16 31
-0.8083375818692150 1.0388763909849832 2.1021281529236160 30 24 26
0.7580879940803850 0.7552713282170184 2.0726558364866534 86 39 57
3.5254036634240067 -0.4501606434895729 2.7973760726914625 48 39 44
-0.1607400865643435 0.2819070144449859 2.4766577091632187 197 169 106
0.0477729482682879 -0.4977705774151154 2.2197041805033719 35 44 43
0.5629789488454103 0.7500496694021460 2.1585328303040656 103 102 118
0.3317339670641400 0.7566263732292798 2.1966770716451132 104 90 103
0.0197048558871239 -0.0322312617141826 1.9861596586421040 36 36 36
0.1517242468119409 0.8153824497954627 2.1624557133352522 32 23 28
0.4117991985794365 0.9525859866473547 1.9883267054801281 67 20 36
0.0190680724053022 -0.0317738458092303 1.9849780142596307 36 36 36
-0.0587206354545278 0.7358371346001690 2.2774158208049884 116 105 101
0.1218150059617611 0.9093143311155872 2.0758958206318163 44 33 37
0.0806226167302323 -0.4424971941886987 3.4215401469026152 76 83 102
0.0021416103998218 -0.1001952502194621 2.0284953934980368 196 179 125
-0.1285076212031143 0.9596481552425378 2.0678890265672889 51 23 37
0.1219182271069588 0.9099785512044583 2.0763000353048873 44 33 37
0.0274496482202699 0.3877961537827308 2.3011673689612819 166 141 85
-0.1007766687507452 1.2171909122097646 1.8246669908727422 123 103 104
-0.2384168634475015 1.1581965313953613 1.8997960938386944 60 20 31
0.1009080361667829 0.4636264246250685 2.3132967439416827 65 29 31
-0.8799058304416444 0.9064973056699835 2.2398920925433461 20 20 20
0.6469093697024859 0.7725778379883020 2.0989570946077327 114 115 120
-0.4108507360672251 0.0333974669476912 2.5687349584435619 64 58 46
-0.3344487165687661 -0.0112521896497223 3.0515872047754846 95 91 90
-0.3271622032624262 -0.0114968359261544 3.0644329955508689 80 76 73
-0.2606617859357114 1.2013907139108677 1.8665678960250180 75 24 33
0.4523894741116100 0.5962094061985388 2.0612476344699338 74 32 44
-0.8505714059722765 0.8863811119575473 2.2460386394449183 27 25 28
-0.1607363177015207 0.5383118354264692 2.2393923006376384 200 164 86
-0.4497654530568829 0.3816876716043217 2.6461315468004507 69 33 47
-0.2676372195094982 0.6313261714222925 2.3749939054808729 75 19 30
-0.4539765237710852 0.8498958697864822 2.1809478783214780 81 27 41
-0.3905036331580584 0.0211581370353213 2.5122046870284573 183 166 114
-0.4553839520349291 0.4293961669738365 2.6333031457074845 94 73 82
-0.2048358940810859 -0.0864606565599965 3.1042029527628019 100 77 87
2.5756576151261288 -0.7750420379307831 3.3466342940199492 31 31 31
-0.3402738004456501 -0.1106185513739638 2.4329541661258647 165 145 121
2.0351285017555196 -0.4515667807358635 3.1198345230311912 132 103 134
-0.2394794611921726 -0.3310682509738739 2.4226386455271851 82 62 61
0.6540235924816226 0.7366795600869869 2.1340907592788576 100 86 99
0.1577108160098510 -0.1292361713734034 2.0657384207278304 45 46 50
-0.0947664026914338 -0.0225306383999688 2.0798419736239269 73 51 38
0.0352246255551403 0.6745987396389209 2.3270513774061992 107 96 104
0.3153532500712728 -0.0932170588339333 2.1018002845912784 183 176 132
0.0351979935350391 0.6745230651799385 2.3262085976125340 107 96 104
-0.4776633915630890 -0.3716697519294410 3.4218371892841284 90 84 98
0.9349390795417464 0.6809407198273145 2.1380933955809480 117 85 88
-0.5440188558840230 -0.2631065086655141 3.3290512501669496 91 50 66
-0.3985436908352187 0.2752254550480389 2.5958605133824664 72 46 31
0.4507697278631637 0.7266480241311628 2.1968016084804938 45 36 41
-0.1010053915913106 0.6700118566452989 2.3709611959605299 44 37 29
0.1194486232079687 -0.5730694239226367 3.5758868124409697 49 28 23
0.3447203672734491 0.9066923375559331 2.0408823247011663 85 63 76
-0.3106662681203346 -0.4397766062218047 3.4717416411193676 29 20 25
-0.3499234493518987 -0.4356696984135848 3.4799071056296769 44 29 36
-0.5637401956664835 0.9491659409316092 2.1495795408343059 110 110 110
-0.3783495528351686 -0.3988546156314195 3.4189146233541834 76 66 67
0.0651479542158173 1.2802652781129333 1.7391191128083201 80 81 85
-0.1231620109434772 -0.0214226417416558 2.1247573897176979 176 160 100
0.9700933201135599 0.5438708165518290 2.2640045967732831 89 33 46
-0.5329677018617607 -0.0757251061667635 3.1378459171857869 108 66 88
-0.2505182899064988 0.1963368157815989 2.4540002630323352 145 102 51
0.7779802369853162 0.7054939808324918 2.1207613316409972 100 87 97
0.4102377671240262 -0.2280444046498550 2.1729423858810302 209 188 145
0.2240434915830502 0.5381274263713305 2.4218579800987565 101 77 93
0.2660325781711222 -0.0794973657014275 2.0875426381982876 58 55 50
0.4701092813665900 0.9580017675200978 1.9672338031128449 111 84 77
-0.3060517263581476 -0.0044433479327966 2.3279989752216492 158 95 44
0.1813252910924317 1.0846938861195283 1.8948082759513696 99 82 101
0.1662810077700494 1.0964455689644186 1.8798985209882044 73 68 75
0.2016007725804390 1.1584673264550989 1.8219189071909181 91 89 102
0.1755290870001379 1.1564917763123672 1.8292328988323141 34 34 36
0.5878916854084281 0.4165346489070748 2.4646113944077919 85 74 70
0.5872097999356302 0.4170465996473020 2.4619963829190570 93 75 71
-0.1910057570257077 0.4652583196764621 2.5631202851693171 123 105 105
-0.3060566621284719 0.2037619451329918 2.4575775964052560 119 85 57
0.8270162939192535 0.7096659796323487 2.1154621812701233 94 82 94
-0.0048329386200515 -0.5300071024875448 3.5185042018790229 61 31 33
0.1514140688040113 1.0914772072232926 1.8936550294959438 30 24 28
0.2098896981475230 1.1825208133423897 1.7985163154024588 105 97 112
-0.0601406996387735 1.1002265350642777 1.9233922103728178 87 84 93
-0.5007526552354070 1.1717126336883050 1.9321878984121834 90 74 77
0.4077220399521980 0.6961196743019457 2.2340705117626856 37 25 27
0.5556470132384278 0.9349489518538870 1.9656167190788345 104 100 115
0.7551155700386102 0.3160586546808990 2.4024674824425434 50 50 40
-0.2973724131135923 -0.0782196996714786 3.1111274885860496 54 16 37
0.2986433302967765 0.9662351290751362 1.9905222287309858 109 94 117
0.6292324314562537 0.6455585370753653 2.2183591483505083 103 81 94
0.2546695153933853 0.5162636360056927 2.4103400412471765 45 17 6
-0.3847356144379128 0.4971984273170434 2.5563077411376396 98 98 100
-0.2795458540855901 0.8292877981831879 2.2191964354140139 101 97 111
-0.7861522732972553 0.9794718443119750 2.1578277721150361 127 122 118
1.0684764843278520 0.3935705035658820 2.4122658307735483 78 32 34
-0.8775866947667764 0.8777800534945387 2.2995390120131103 70 70 70
-0.0337575758059215 -0.4213968229665441 3.4207385197720934 42 14 28
0.1888731134260914 1.1295326970388355 1.8498110650542932 44 39 43
-0.2304278167538356 0.9795092010092989 2.0660031844370361 38 34 35
-0.7886813839220985 0.9135645907177720 2.2123605107586397 59 57 60
-0.7330662081943263 1.0304210732299524 2.0988975065582753 31 35 36
-0.0791904484225251 -0.5134244466502988 3.5219124020338302 48 47 45
0.8228346406030970 0.6887601622103348 2.1464821367647549 119 78 92
-0.0583441526832457 0.4961099447863008 2.1827942412487138 202 168 94
0.0041038803789590 -0.0989050228907689 2.0584196570228173 211 195 143
0.1143426417471737 -0.1091702743523561 2.0857971941231845 191 177 132
-0.1213464603580243 -0.1167941335727390 2.1018475630404216 140 145 177
0.0178834115449407 -0.0298209511002380 1.9814713323396365 28 28 28
-0.4815115275002940 0.9509378498117028 2.1439439087949590 116 110 114
-0.8119935564915838 0.9474408232091986 2.1836550421607464 48 50 47
0.6773017273154448 0.6826513303415862 2.1716235902599803 83 25 50
-0.3009530980284175 -0.2727140758066992 3.3011303145222599 84 95 101
-0.3627890866231051 1.2626340480162601 1.8293048677683261 58 20 31
0.4709205284948190 0.6521512729833424 2.1714397035849902 81 35 46
-0.2003945995474257 0.3431864913668030 2.5336253395648027 29 25 16
-0.3521921680151630 0.3203527363735101 2.5632077943823619 186 174 126
0.2932732404064140 0.5076652733113004 2.1372561615427097 212 179 108
0.2817361731043191 0.5107038637004365 2.1185216525977220 214 178 104
0.7173002055702501 0.8411649542445225 2.0106424816987922 128 97 113
-0.2642050336519114 0.1951714442306821 2.4601735480555087 112 98 87
-0.2786158241262908 0.2258480346412820 2.4615198687593121 162 144 132
-0.4886801238179809 0.9020715966629422 2.1828284143343568 132 78 94
-0.5573243054808708 0.9486420538519269 2.1527916388379964 114 102 104
-0.1243700513240962 0.4358082663653574 2.4736226598660260 63 57 33
-0.2105760750482130 0.6068186772947175 2.3123095180908870 163 137 112
-0.3445309151330572 -0.1607234545380817 3.1973966718610032 57 40 32
-0.4265396689105613 -0.0410649883042017 3.1071182566867646 116 84 97
-0.4187065946454611 -0.0376463368347500 3.0824881573964875 137 104 121
-0.6262014101465300 -0.0190058682144359 3.1067260333260185 83 80 87
-0.4735016762142035 0.4168028654121623 2.6470122041348318 106 65 83
-0.4757880850108864 0.4159996431774485 2.6420484222604297 124 80 95
0.8454067687224980 0.7030342346521553 2.1149837729863621 21 13 24
-1.4096149786192018 0.0518664927449413 3.1308492627683675 47 39 36
-0.0265271934622063 1.1446281806597922 1.8760385340748984 23 22 27
-0.2881276781417704 0.1653775229845909 2.4777192793709881 152 132 125
-0.0222146604738093 0.4280681124463773 2.3906725450227357 164 126 63
0.8420828001866086 0.6538406340866050 2.1653169078632306 107 85 97
0.7420167037837087 0.6829429033688054 2.1274680606256324 135 94 110
0.2915420437219097 1.1578179950273937 1.8076629935770869 43 21 7
-0.6953376145215370 0.7213868210536984 2.3896528783026034 54 44 45
-0.8530890909829790 0.8281391303170742 2.3008372471493068 21 16 20
1.1677330892535969 -0.6724759296107370 3.4388100547732781 99 106 125
1.6780044870498627 -0.4336709216933741 3.1423001247016806 58 32 19
1.5701675366145749 -0.3712222626763030 3.0984733394743711 122 100 102
-0.4562841287485122 0.4292553432913920 2.6313030966948543 92 76 79
1.5286366018586124 -0.3447393013673739 3.0791696173429930 125 99 98
1.2188304000093952 -0.2584916917729195 3.0485191130894358 45 49 52
1.2412964272988598 -0.2276978107018654 3.0224624456163571 37 28 29
0.1814372483019573 0.5475555438083802 2.4178498361877292 89 67 80
1.2279102532986113 -0.2256729219110429 3.0052355911462745 49 50 52
-0.0740023858744769 -0.4515951352124464 3.4426917554780174 105 84 91
-0.3914879786059629 -0.5341081993259351 3.6231686635032183 51 22 42
-0.4135983811967754 -0.5249376355492095 3.6110165735827859 86 85 103
-0.3027812817098097 0.7851622120527977 2.2648934988467277 54 44 45
1.7154656096811904 -0.4400208220937601 3.1508895513691599 111 97 97
1.8250922048644129 -0.3785321850752719 3.1256004301290954 75 61 76
-0.4162127874666397 0.6746333317064508 2.3933884892134083 85 50 28
-0.6635189892885976 0.6494405228233057 2.4565518750198536 44 38 38
-0.3314947443511138 0.7566828998056987 2.2995455076896216 114 95 89
-0.5827626477135995 0.7007744315975767 2.3905222088046481 118 113 93
0.6595941371225297 0.1146661221172380 2.3294325907630276 113 97 82
-0.3551236257476215 -0.1100141004715630 3.1392938782117157 99 94 98
0.8012501466223300 0.4337459525288713 2.3899534854998268 95 59 73
0.3251679295253752 1.2035441074518016 1.7620975547057425 68 42 43
0.9569900746740641 0.5245652051807542 2.2891534968297700 105 86 82
-0.4030245411411135 0.3454605583115917 2.6537518929467763 75 31 30
0.5937908213251345 0.6135381132636559 2.2746810989196717 92 83 84
1.9764467536136585 -0.5352465407665807 3.2269976562603393 64 34 44
0.2562852720226233 0.6412431477003884 2.3182535357375440 88 61 66
0.6200604959825763 0.6476434712936256 2.2335138381228878 102 85 101
-0.4076259328504876 0.6247448373898320 2.4401145250821097 120 104 105
0.5886745524337544 0.9702711972685983 1.9289462761007190 82 46 74
-0.6297967242174208 0.6571966891654187 2.4423071089730111 37 39 38
-0.6305199833444628 0.0091613297655192 3.0728131022765064 104 107 112
0.1975080656418950 0.9139441590911581 2.0550458404850200 79 25 49
-0.3205733110420944 0.2372232736615840 2.4756864550789692 188 154 90
0.3812535346654254 1.0776785697015703 1.8659020440879535 118 97 116
0.3636699416257161 1.0905836445479566 1.8579910677396585 83 48 68
-0.7354405115478211 0.8513217349390586 2.2638995279245626 48 38 39
-0.1788515050641271 0.7825791617065546 2.2450457584934465 51 42 47
0.2119131709038991 0.9502624065681754 2.0208613278225305 113 98 119
0.2692841282063212 1.1538971696237819 1.8160849312754932 103 93 92
0.3375802763751284 1.1776273187644133 1.7832444094800337 87 85 90
-0.7673764393133136 0.8593584174547118 2.2507395357907649 48 39 42
0.3052360881273116 1.2027450880600337 1.7668014710769566 84 89 83
0.3375134407920129 1.1012392580732424 1.8539943984780847 117 103 100
1.3194265137350745 -0.3266169340592429 3.0933791899597676 58 21 38
-0.4590496804317405 1.1792856055607368 1.9208425921453640 63 43 52
-0.2743532599723740 1.2972357225592563 1.7776289305431938 53 22 30
0.4305499691496633 1.0265465631614408 1.9019224733345343 104 92 114
0.4129709222777387 1.0517579892356572 1.8869597449799869 72 34 59
-0.3682441015690624 0.3960160062538539 2.5980061187619432 70 35 41
-0.5663430438470655 -0.0472952159823781 3.1310896492292173 51 20 35
0.7998259256090070 0.7638876955207580 2.0691833538135209 46 12 26
-0.2224436684889053 0.5528927977575633 2.3599892148396786 98 40 52
-0.5719769355564485 0.8773345577051198 2.2264069351269664 79 33 43
-0.3818809606258523 0.3127341616807859 2.6689609207706959 188 171 125
0.3177002479603984 0.8510395880236417 2.1049178231683978 80 28 51
-0.5985330247403611 0.6385783871011214 2.4576053022460327 70 87 94
0.2567699769164053 1.1763433075554919 1.7987372220287621 54 45 30
0.2414223930781098 1.1999046842639938 1.7778135443493477 86 91 110
0.2456252426534640 1.2026845364034717 1.7818712318574093 83 86 93
-0.2128376854125994 0.7664189535500442 2.2671032763957122 105 96 89
-0.6773474526353184 0.9613779158556448 2.1628223986344892 61 67 67
-0.2912243671574297 0.6245343172684429 2.4208572582767407 99 58 28
-0.1778975773051109 1.2101344415100157 1.8374184308026853 108 65 46
-0.2806735807652687 -0.2816436356388637 3.3109507230158211 86 97 103
0.2515757866259407 0.9862197997970035 1.9780439042325042 74 26 50
0.5594459212707823 0.9918764403534662 1.9143904360375499 83 82 96
0.1385455637112915 0.9318250672839551 2.0516911979531369 60 29 44
0.4684730710427464 1.0366871369091810 1.8918730538391284 91 69 90
0.4412210303370112 1.0807162769576681 1.8553242478263201 72 23 42
1.3618283731841108 -0.3578150175735544 3.1092912302186750 99 44 63
-0.2317876788826221 0.9795453363047484 2.0669339322751541 38 34 35
0.1926228907524684 1.1203479651191688 1.8490681327682823 53 51 52
1.1803359526812900 -0.6662741696602368 3.4511185018196779 82 91 106
1.1749437561012261 -0.6645549201872736 3.4408692270507464 106 122 137
1.2118409126853058 -0.5360063155711057 3.3165927120956282 71 96 101
1.2275488329366433 -0.2172530408834153 2.9958485373960051 45 43 46
0.2956860642311666 -0.1575585866627833 2.1101113632034010 163 165 204
-0.1271744806535644 -0.0317572196227301 2.1307378826076562 68 64 63
-0.1163861731700779 -0.0299238970661396 2.1266868237708225 47 44 55
-0.1730061269268909 -0.0972407423882295 2.1486279587808266 148 156 192
-0.1828587680956703 -0.0756464578183910 2.1626218005731701 155 145 109
-0.1197331852918818 0.3721002465229085 2.4971355683418093 154 136 88
1.1513276309015590 -0.6893813700359418 3.4566188982201727 84 92 103
0.3224033075896195 0.6579253706979922 2.2321484301937833 62 46 30
-0.5411321588016021 0.9792843140043520 2.1046758343820291 103 122 126
-0.0392125735454428 -0.0836622673406534 2.0564986688687519 182 178 151
1.2042574365169607 -0.5936587964315456 3.3836415284336523 68 67 85
-0.0176967124319845 0.0049015814966709 1.9814837068790530 177 161 101
1.3540706472734727 -0.2905485035681750 3.0624946957736059 120 86 110
0.6352942488235861 0.2495693309586746 2.2888811007333754 166 158 121
0.8456154164393767 0.4432520480663852 2.3734129743147609 94 66 80
0.7582185023710979 0.6918866884015739 2.1358822044778596 108 85 95
-0.7205895981889899 -0.0983102719977264 3.1958609358888705 107 90 98
-0.7205026124199801 -0.0985762503725937 3.1939343102752544 105 99 101
0.7971290612972280 0.5188428285353844 2.2960563111209296 113 73 99
0.6520718601596291 0.2828615331057527 2.3090548799292709 48 49 43
-0.1137109192320021 0.4406296258319357 2.4854655623643533 178 163 106
1.1743100686744767 -0.6731584026960458 3.4457532825363626 111 117 139
1.1871401759052853 -0.6473139507886212 3.4142302790463814 78 77 82
1.2294761638271918 -0.4784175937222431 3.2726824462304669 29 32 41
1.3551697317099056 -0.3617315582409488 3.1181302554926291 106 57 76
1.2307469705452592 -0.3333973841249300 3.1037731169844478 97 90 97
0.2916133806672546 1.1583135139541041 1.8077813516360419 43 21 7
-0.3756481300108011 -0.4034276384155293 3.4513190602047867 80 67 76
1.2308362695416954 -0.5124653373855520 3.2973137629836899 91 93 106
-0.7474396371651881 0.5476028499969213 2.5552928656893763 71 45 30
-0.3087440924872528 0.7704956195465805 2.2823539708110219 64 49 46
-0.7348185892003695 0.8532206201173306 2.2676213338354740 65 60 56
0.2354498470742622 -0.0904398232910157 2.0727728980754114 146 146 174
0.3250727524186560 1.2035403858305460 1.7626387526202427 68 42 43
-0.1042481401470255 -0.0184291840646317 2.1044459944257095 177 162 105
-0.0185098437136419 0.0056033163450470 1.9889327415747668 159 151 89
-0.3572484174799918 -0.1632549006345460 3.1981234504891947 74 74 82
0.5511313367951964 -0.1152559152734593 2.3083100498431808 40 72 71
0.8248328624731633 0.7122453326199525 2.1112889335731637 107 98 115
0.0205736650479739 0.0183705671107571 1.9960057856402456 154 131 77
0.4599885429151514 0.2477212993287738 2.2838709277182705 103 79 41
0.6989029264316051 0.3565568703620330 2.4761453064794856 102 94 91
-0.1178866217309751 0.6559153005092420 2.3303300566652814 37 32 28
0.9273068417121705 0.4467959255597294 2.3596886055765705 84 74 75
-0.0932046460436923 -0.0358622096469240 2.0892097599366410 52 55 64
0.4456607960061226 1.1519141505018355 1.7925151728436248 87 78 97
0.3754434200184804 0.3952028255594286 2.3859455868313932 150 106 43
0.3410113819403844 1.2117430371368925 1.7550731542397140 92 85 79
0.4157814015116765 0.7181257538246192 2.2315490388013295 57 25 40
0.1511818090546593 1.0912044312408642 1.8931673490835792 30 24 28
0.3888341658637326 1.1366750904832621 1.8127159362686032 104 95 114
0.3018391905412946 1.2464341931641025 1.7311084247269282 98 96 97
1.3143661494714425 -0.4049827664579969 3.1438578333406708 57 19 34
1.2660153612810765 -0.3444837425450915 3.1270374377791677 91 82 87
0.2024402678927745 0.9648004567093910 2.0063830893803360 101 87 110
0.5331325473502229 1.0255704492153814 1.8876243414638816 61 18 37
0.4254892129634877 1.0157460460074650 1.9161403636962038 94 79 102
0.0673682546161135 0.1628203869055600 2.0668013740985023 142 87 30
-0.2884858910682980 0.1273931125377410 2.4680671900900828 73 61 45
0.4906965556349351 1.0763570599057888 1.8496454820772215 97 85 99
0.1224083034868527 0.9099999229132513 2.0763477700219672 44 33 37
0.2097596809237923 0.4753361832818347 2.4313539895050615 42 21 18
-0.1153691020636510 0.4573901532525888 2.4251879404792898 194 162 87
0.0212633739997577 -0.0272369307632479 1.9779664891616986 32 32 32
-0.1214270189751799 0.5370830452141464 2.3000996214842524 196 165 98
0.2042458838422745 -0.0724139111698306 2.0737087477393885 58 49 54
0.1674224294866941 -0.0949658564561287 2.0352839408513894 66 60 72
0.7070902220674763 0.3384102442860821 2.5282437252234180 49 42 36
0.2910677354059840 -0.2067315217203969 2.1251022132309103 57 60 75
1.2352258100957056 -0.4613899659510174 3.2472048602549091 65 75 85
-0.2897399750538917 0.1682376328652521 2.4730396087968458 157 144 138
-0.7564581681051550 -0.3736664335022394 3.4478319507034461 46 29 45
-0.7402788433799775 -0.3937293018561682 3.4908889525070990 95 68 85
0.8601286276754285 0.2421373517404735 2.5816596050808567 99 115 115
0.3938991511874064 0.5208623251771056 2.1443812064080356 61 60 55
1.2317444203884151 -0.2254775629645288 3.0109297087012612 45 43 44
0.1129498790605875 0.5138944694552234 2.4721994984352187 86 70 70
0.2272285447930152 -0.2244259998209867 2.1041084065150719 162 165 200
0.2004237494769786 -0.2125283275816076 2.0875041600250470 155 160 190
0.2616378360351534 0.5552325997444933 2.3594116434121069 59 26 21
-0.7345052031297564 -0.4142914537710953 3.4978656317268704 63 39 55
0.2886423558936855 -0.1818225334104085 2.1084037901775274 171 173 211
0.1773707320222194 -0.0563649782689109 2.0220395678633012 220 195 138
0.2357892821358149 -0.0546821107536991 2.0736199742691608 193 174 115
-0.5065675983869704 0.6848288037297896 2.3940654740649321 129 114 95
-0.0864052413109542 -0.0295649092974411 2.0517832605681900 181 177 132
-0.7653183296744090 -0.1530356965138612 3.2621462560614365 108 98 86
0.6433502318802393 0.2201341021370309 2.2737218775962367 94 99 105
0.9340095204649581 0.5390925900448500 2.2163149341531905 56 27 31
-0.3087727892125374 0.2769374946301290 2.5014746847905789 168 131 78
-0.4135099620166255 0.3187584528672118 2.6394468669069653 91 53 64
0.9682557370475176 0.4388929642560903 2.3668019849625623 91 77 77
-0.4762770245052717 0.4809661747569425 2.5824130757753596 49 34 37
0.6629060251041721 0.9529597623132142 1.9235356897941351 76 41 65
-0.1985517915937775 0.6398407976620948 2.3474929875583226 40 35 31
-0.5823513222850937 0.7005421604369382 2.3895267103814439 109 107 92
-0.0214258489193004 -0.4784670136776739 2.2518541156916041 38 58 59
0.2004662579225654 -0.2305239416095249 2.0966026187332023 57 51 61
-0.6473418236395081 -0.4262077211288270 3.5047161812839134 56 24 47
-0.7270641217322035 -0.1876358274162256 3.2884657922536631 104 97 104
-0.7768584706219920 -0.0924530739332007 3.1906452825295966 110 105 109
0.4968831323117061 -0.1854597311169279 2.3510609968106682 55 80 76
-0.0340506858266520 -0.1097558680075281 2.0899503562919319 43 43 45
0.2151576419582129 -0.0690307554753668 2.0645951465777208 48 49 53
-0.3479223284035874 -0.1176335591758310 2.5020837588071676 71 77 75
-0.1344289432132157 0.4560485209835616 2.5058513151599762 95 71 59
0.4598625825506814 -0.0476984860809705 2.2241470811824988 182 113 56
0.5419218726864945 1.1025692733773660 1.8161148103870028 117 99 115
0.5794017353507778 1.1152247553101360 1.7966164247401191 118 107 124
-0.2935055591375661 0.2090986777489378 2.5007145808532165 99 77 66
-0.5594551354849292 0.9270524392391304 2.1765940462795079 82 69 76
0.6080471671056199 1.0462549994573846 1.8523196140652345 62 24 45
-0.7467901115536340 0.1722493285338577 2.9282993780369919 106 98 109
0.5548467401827579 0.5992095922933521 2.2969411341035206 27 17 18
-0.2912186761235335 0.6252508632607416 2.4226515923747143 99 58 28
0.6777484448180348 0.7590600189206400 2.0953824683406035 102 98 113
0.4093006404424842 0.9511157624687649 1.9831463506978495 67 18 40
-0.7378601096751616 -0.1427213916186452 3.2244993238521769 79 66 49
0.4126553691169844 0.2223328434162891 2.2628101615405369 172 147 80
-0.1340322963566361 0.4040750297571382 2.5649867901204177 35 31 20
0.5511358307697268 0.6806228857553793 2.2393344191073652 63 19 36
-0.6675415895855241 -0.3964998081244120 3.3314866640265004 82 59 77
0.0370169326082243 0.3149972975662224 2.1717054863439160 173 153 94
0.1806681100412823 -0.2285295656784606 2.0689337937406491 173 156 136
-0.0782933590992054 -0.1971920958909414 2.0773024420203727 148 139 100
0.8710503433438107 0.2496247383053943 2.5747814051327369 48 48 46
1.1800222750096783 -0.6831163467176882 3.5107677369087571 95 101 117
-0.0284490947279703 -0.1396337057178356 2.0713186121600140 158 147 117
0.3202303268965948 -0.1382637913805488 2.1172970375940272 182 181 135
0.2793696375908492 -0.0728146406494243 2.0867271247751833 188 181 152
-0.1524269522490110 -0.1973044311626987 2.1193912061834226 41 36 33
-0.7660291541453770 -0.3907742152876267 3.4902333879278165 116 88 110
0.2607828523459970 -0.0692999728882269 2.0769941183002083 63 62 60
0.2755926358991391 -0.2037031065839783 2.1078404688967867 161 164 195
-0.0144615249436820 0.0026570053474480 1.9821822981609241 157 149 103
0.7118456201065587 0.8406139076883916 2.0056117561988671 128 100 122
0.7123347559187847 0.8409594566048606 2.0068887979759236 128 100 122
-0.2979772541700366 -0.0419530231979240 2.3101047165968729 161 122 63
0.8952045798765982 -0.0253051908516075 2.8540798395588007 50 46 45
0.8616432102607943 0.4478920926118124 2.3682525759490756 42 31 37
0.8532178608553667 0.7184677567486764 2.1003234775998014 71 66 72
1.1632753911174822 -0.6793845983961717 3.5131659113249620 19 23 24
0.2173653725202938 0.5607570496411781 2.4060570819898830 97 59 74
-0.1525562423905782 -0.1745480478503386 2.1114904835073589 149 153 182
0.8820334295243369 0.0661905681124882 2.7607657808677559 38 35 30
-0.1886588648987640 -0.1704447840287990 2.1294613104815623 164 154 105
-0.1632352312537565 -0.1653590423191720 2.1189924210251081 139 144 173
0.6163404078565635 0.7221926955434552 2.1612627607619070 112 87 109
0.2026069247673485 1.1677853571973886 1.8136761064055458 66 59 67
1.2377263923324286 -0.2181382126626458 2.9895674114388857 117 113 114
0.2789660418266093 -0.0712813841429912 2.0845353250082175 193 180 125
-0.8340941408740160 -0.0031809671532170 3.1262380988316893 105 103 104
0.7172196736359387 0.3731333700034096 2.4811344430401263 36 26 27
0.2600944940268609 0.7815830941791326 2.1772935112865768 101 78 84
1.2354853299108906 -0.2267845903953271 3.0201005885517018 49 50 52
-0.6082121174765209 -0.4074868041433289 3.4492269154788362 40 37 48
-0.0461004898951970 -0.0868264210308532 2.0747692343864905 62 57 77
0.1511101072113980 -0.2004264633202415 2.0680577414221148 176 162 113
-0.8754632154421842 0.0772254692897919 3.0376710821185293 38 34 35
-0.8773786535620096 0.1654983213950490 2.9536086154574033 83 65 79
0.3116459840969347 0.3927135481239178 2.3822721554826924 113 55 5
0.6907398947836688 0.9848149950571563 1.8893338826723296 74 59 82
0.6684318707844578 0.6338784868959533 2.2187123712508123 102 74 89
1.1821052070750839 -0.6167922928762450 3.4097191341833160 13 17 20
0.3079726079069257 -0.2879513106775104 2.1429097414085501 208 155 79
-0.0892146585410716 0.6928621166997848 2.3218475982020075 69 49 48
0.2185746288692428 -0.2582499118986883 2.1380210996252806 173 160 125
0.5776412621783108 0.2973125254345250 2.3598096628665823 133 106 61
0.5595480921382495 0.3470181804174233 2.5438155559830267 106 90 91
0.5600317422520861 0.3469211510184623 2.5449521287927359 94 84 85
0.2519107816096027 -0.2163261856531856 2.1016796484652391 169 172 205
-0.1037029160208744 -0.1819827024425191 2.0942764157652931 143 150 179
-0.0445773392795770 -0.1752984302042354 2.0657054463051532 182 170 122
-0.7511857073508607 -0.3525147749925737 3.4480123226269614 78 59 65
0.7668625090271416 0.7841763049554988 2.0404394845262495 56 21 45
0.1764445250175957 -0.1781441985225876 2.0601661724743989 141 146 175
-0.9350958552735936 -0.3111214512006551 3.4349639248716750 89 95 107
0.7087723274486465 0.8057515405432168 2.0447775470329370 106 87 109
0.4084018356668224 -0.1818368653379252 2.2307968075633666 88 82 68
0.1717257654279566 0.8637416213907431 2.1112736989106988 87 65 68
-0.8911977995668051 -0.2422941330934289 3.3681343560674768 55 25 25
-0.7538622669206479 -0.2033103245580953 3.2939032115891660 41 36 32
0.6565997003695473 0.9449178116264251 1.9325329283736197 67 42 64
0.5689914905543091 1.0724740061302627 1.8415989100554133 73 46 65
-0.4626490927797046 0.5546665945662602 2.5072465547288689 44 34 33
0.5257677982806669 0.5627419482638993 2.3367345946377522 39 38 43
0.5442897501819847 0.2169889636998046 2.3715999643732646 52 34 10
0.8059252366473433 0.5627719455876553 2.2515771661918178 104 83 100
0.8498144283791607 0.2195754996104991 2.5972718445268574 91 103 103
-0.4590842045060260 0.6257388753818846 2.4419647948938921 84 54 30
0.4411753778221852 -0.0904769831130364 2.2111250033680854 168 112 35
-0.0990521175144599 -0.0308350999270049 2.0571154690361220 60 60 72
0.5759796130490495 0.8962177474509598 2.0048282922334288 77 53 77
-0.7328432721047897 -0.1143590026065597 3.2072244777137073 110 101 96
0.9457829083058943 -0.1645505858262759 2.9963666009115797 102 112 124
0.4368854239891966 0.8486730022392007 2.0808127451357161 106 89 99
0.6484702176477061 1.0459133019662123 1.8413156932115498 44 17 32
-0.4639805598871502 0.8775718985656040 2.2017576018941045 104 64 64
-0.6891529357465764 -0.4043523145996132 3.4743080117936311 99 85 100
-0.8770171120896078 -0.2168778404019611 3.3283345958826307 115 105 116
0.6441873309015942 1.1187980657093095 1.7810937051367646 96 89 105
0.4205001397441354 1.2542823444424664 1.7040278173356087 101 89 101
0.4477040914642963 1.2611796703466167 1.6944684709056643 91 79 91
1.1882876830293889 -0.6800411649944137 3.4736594591480712 95 104 119
-0.8641608866928704 -0.4035721040262637 3.5215525956936253 61 33 45
-0.9204569174387555 -0.3922943819986818 3.5046389220358525 108 97 113
-0.3035468334845754 0.0532636448568305 2.3789760329109937 82 65 47
0.1503331756768622 0.5209576612310546 2.4507577726622918 90 73 83
-0.4735804078387824 0.5604228298739368 2.5042066021372560 43 38 35
0.1773743290900102 0.1807569289254612 2.1117420734466124 135 95 43
0.5810927646785444 0.6414354003800226 2.2466405052698977 50 12 25
0.9717535266824830 0.4776102231553315 2.3410126805858917 71 18 38
0.4503444303696827 0.8542097175504666 2.0682788654556581 104 95 116
-0.6033641190829171 0.6360682129797723 2.4639124150381879 90 96 94
0.6486046826092374 1.1434139907721608 1.7587931204548040 38 49 51
0.6959876946017454 0.9665962942913241 1.9029505325898486 97 89 102
-0.0310808409490240 -0.4935273678878018 2.2918274295691896 39 51 51
0.5819385727155478 1.0392489931071225 1.8676953643436205 102 94 107
0.5369127757316898 1.0816320885612949 1.8361799884512369 40 8 29
0.5368716458380371 1.0813956929468296 1.8353481500748543 66 24 48
0.3042598417118347 0.9152939534611214 2.0322974045940558 67 19 43
-0.8397272311142230 -0.1645641245819920 3.2555662695729248 78 46 49
-0.9311890576786525 -0.4103967667640758 3.4679499386271675 82 80 91
0.1524594810456392 0.8168096796177936 2.1590654912140610 39 16 26
-0.8015814288846898 -0.4622580854801956 3.5321483171709374 73 76 83
0.2135885145594253 0.4745092147003800 2.4469486298128071 42 21 18
-0.5041630865193388 -0.1329373060091224 2.7845459116144702 58 20 33
-0.1246303184401226 0.5297103982407645 2.2743746963949425 204 178 104
0.7133022379213764 0.8393301570532108 2.0046938030362362 138 106 127
-0.1583650440362931 -0.1764593411273417 2.1100652036100769 34 36 61
0.0260624480141942 -0.4991461417317719 2.3036098343182840 150 154 163
0.1861465840031749 -0.2065969447621635 2.0699837324168460 136 144 165
-0.0309391193258154 -0.1358910655085601 2.0738978712636214 48 45 36
0.1454983884268897 -0.1686108568323198 2.0583113634935839 59 46 40
-0.0830717713841108 -0.0352138403282069 2.0459562663550188 158 154 151
0.2257621559481774 -0.0607621985543757 2.0724670707069976 55 44 40
-0.1279163512064362 -0.0300541027607790 2.1224377992877823 55 51 48
0.9841249826769161 -0.1708900830681314 2.9933139996684641 115 138 146
0.2026665149398884 -0.0708883348398228 2.0701648212597199 51 46 52
-0.0222500981093584 -0.0313054132006162 1.9855667420834491 49 41 30
-0.4568038615616112 0.4305556246381818 2.6339910462951446 77 73 74
-0.8070989618164348 0.1336950445580727 2.9650747028318003 65 45 56
0.5064478237476274 0.3558005558226768 2.5463607798067951 103 51 64
0.8507181485542140 0.4015589548949971 2.4203445646738349 59 50 55
0.8994472319562423 -0.0606690646036147 2.8817429499408966 48 51 40
0.2833890409032228 -0.2310376436181316 2.1106102612120923 172 153 87
0.8559782861377472 0.5496190708901235 2.2747492961798197 27 17 25
-0.0094033884428588 -0.4692381186517866 2.2410349132871752 177 174 183
-0.6805150603249034 -0.4210152168528009 3.5114971593414901 96 79 95
-0.4784077674195720 0.3965459698789384 2.6661063785197632 117 71 82
0.2789793579359486 -0.0708063231608408 2.0815301623457994 196 182 121
0.6401829535169528 0.2874750484181537 2.3140944947908713 149 136 83
0.7711047009483563 0.4242800546697171 2.4047510405535188 110 56 79
0.2661733249265564 -0.0953876911558120 2.0840796528111301 152 153 181
-0.0477739693041386 -0.1065634336082368 2.0863769318913583 145 147 168
-0.4984911057119584 0.6404885681534369 2.4230691491550638 62 47 52
0.8307624532740689 0.9140575319021336 1.9239786012892495 94 106 104
0.6109375937602093 -0.5321767570891810 2.8950506177249555 62 63 67
0.9009070626372774 -0.7648624527083268 3.9398520495175990 78 84 82
0.9040642206221789 -0.7675308279669494 4.0309519038463648 17 26 31
0.9250029133578231 0.6791874735589086 2.1267484775935097 79 58 67
-0.1628480266586802 -0.2001773826581829 2.1127770460642004 167 154 110
0.2849204159917905 -0.1138845071081429 2.0960929052987112 156 162 194
-0.1296348598736864 -0.0518369251858811 2.1198206673887432 159 165 201
-0.2655270990618033 0.2198960328686157 2.4633078481640358 161 147 144
0.8413530924400737 0.7311652370691237 2.0928106035879956 31 22 25
-0.4729747541727227 0.4389520871033614 2.5848948321956091 19 15 16
0.7206055550991706 0.4474945661843527 2.3792294402705587 105 54 71
0.8557243745338398 0.7390409880816806 2.0799918206351276 93 84 87
-0.9012656854776068 -0.2455692851931174 3.3643846660741668 53 28 34
0.5269829670322195 0.5838091095321741 2.3257264981679708 72 70 71
0.5277501938221200 0.5834803057468604 2.3265827015318137 72 70 71
0.9675403931650662 0.6037013363931557 2.2079661209142212 84 54 43
0.3093147479969421 -0.3938248758023611 2.2400848044036907 40 49 46
0.0999314250405216 0.1156897737250049 2.0068841510322817 187 174 129
0.6827847555541451 0.7583904141394088 2.1042552029626131 103 99 114
0.2117711302982896 1.0142748265066095 1.9558547202103598 93 87 97
-0.4946254191566956 0.4265146611822717 2.6611715004341341 79 42 60
0.6418502648567957 0.6485516976273562 2.2180929423169444 93 66 81
0.0664169813654533 -0.5122687426286804 2.3180198836918104 30 54 56
-0.0473668424993346 -0.4837102439949042 2.2277203661357139 30 52 50
0.0106597052060640 -0.1030010417932551 2.0517457168409150 212 192 139
0.0338481833151941 0.1589144073386660 2.0472276184924851 155 126 66
0.1219468094932128 0.5180983166557050 2.3284617987963871 50 12 23
0.8857009055316964 0.0408024848710382 2.7712915406983316 90 87 82
-0.1641134491344878 -0.1918769041642532 2.1085301826013634 152 149 96
0.1743000058760742 -0.2221665627010382 2.0589824330337518 152 143 100
0.1813309040938962 -0.2006632806855992 2.0636548712669067 134 138 163
-0.1643046446675405 -0.0796555255613712 2.1331634356949087 154 163 196
-1.0122015597706062 0.0098635015777548 3.1331795126172750 103 84 80
0.0377273135924069 -0.0664946660917380 1.9700421964902284 159 146 91
0.2101457168122485 -0.0587491109563964 2.0618468435322130 126 123 118
0.1974188831759212 -0.0099298667625558 2.0534160347016757 88 54 29
0.2044130809688400 -0.0556559721371492 2.0652239255394340 71 55 40
-0.3338772626114979 -0.0956432715074503 2.3273257416915722 207 177 143
0.8730635572787382 0.3365098793318128 2.4831666748174364 41 37 34
0.2192065622174864 -0.0505732095247433 2.0715071134613310 60 52 50
0.8860287948205859 0.0316795438009311 2.7990529869572280 49 46 41
-0.2311257318088876 0.8131869235781094 2.2280434408567364 83 54 72
-0.9579959290994557 0.2019297824326529 2.9330289232943065 73 46 65
-0.4894842026400339 0.9038046536578855 2.1852449203077140 116 55 73
0.6861609441885506 -0.6373760614785313 3.5201641839526245 16 27 29
-0.2359055978532211 0.8178972261882500 2.2184476941841931 95 89 93
0.2893290697490082 -0.2185935650562814 2.1151412658642239 166 149 121
-0.0294636067479689 1.1439329984971940 1.8743595935365356 43 30 37
-1.1198999328710382 0.0459815002101209 3.1141378733555274 109 86 94
-1.0854349062654434 0.0522605051620240 3.0955377393622880 96 90 92
-0.0239882435833212 -0.0392344436724340 1.9790439118871950 175 163 121
0.1970653112649216 -0.0527288678406811 2.0609833455847730 173 151 91
-0.9448095590505762 -0.0020737617189405 3.1302496874936696 52 52 52
-1.0207866239394203 0.0187305651862423 3.1260479959275100 56 36 48
0.7815875538128444 -0.6603842767521010 3.5318737419137594 23 32 37
-1.0300759088858711 0.0280860762668654 3.1112489314038001 97 90 98
0.1467771006276642 -0.1157489881549015 2.0546698585805161 198 168 104
0.8958010564598935 -0.0386088965010405 2.8655152593907092 50 47 38
-1.0623025871055443 0.0975354919920468 3.0506311858738631 99 65 79
0.7477572305518339 0.0385232385643455 2.8180280220879350 29 31 28
0.5943068482853714 -0.5832443683509489 3.4124986861361655 63 92 96
-0.6537543479867657 0.5345039688227343 2.5632011793003171 41 31 19
0.6360181141624115 -0.5996526013864298 3.4573190237619151 54 84 84
0.5646316953594576 -0.6073139902174762 3.6079503486550140 47 79 78
0.8707205552991294 0.2311502194810589 2.5956047424820325 34 43 38
0.5289284472782448 -0.5762651367257771 3.4813329005360254 88 106 116
0.7379426292297027 -0.6123770576319894 3.4221646288880780 66 85 91
0.6920916305391427 0.3416176213735926 2.5152696124662230 96 87 88
-0.5012117039304910 0.6135180951920944 2.4533952297299275 51 42 45
-0.4870876332818512 0.7078476999321028 2.3715361692461996 81 60 41
-0.1987283701152290 0.6333628121779579 2.2702607430527788 64 45 49
0.1949907712570824 -0.2090263045148053 2.0667482798882575 150 156 188
-0.7664067455930967 -0.1539397763032094 3.2660326799771711 108 98 86
0.8602019941637907 0.4374643237005562 2.3776268691685964 49 28 37
-0.0286674687908282 -0.1529859289558476 2.0646052047239900 187 174 122
-0.3576980944103789 0.8101610380279375 2.2498613228317019 92 87 81
-1.1243002215838607 0.0318547044639195 3.1180113153638316 55 36 40
-0.2204395457624197 0.8235102366604337 2.2165125796963303 88 56 77
-0.3818494155756219 1.0030532388199096 2.0642353629065298 27 21 31
-1.0176015852223554 0.1392884099897883 3.0270717603124684 107 71 83
0.2661127076653094 -0.0634167214407817 2.0794563295771504 189 177 103
-0.0891797916608524 0.6928904058169565 2.3222513602288810 64 44 35
0.0175058699244601 0.6809162627980688 2.3164285055542644 58 38 39
-0.6891987841306521 0.5579390747727635 2.5473137656991938 116 96 69
0.0176526445181483 0.6810883970835112 2.3160000002396273 47 37 35
-0.1037257905577010 0.4328182965223250 2.4619738036620520 201 177 107
0.4674526949455680 -0.1911016172593835 2.3097055457147380 61 76 71
-1.1063539425181204 0.0232241566765404 3.1455811098912188 110 113 118
0.3300581951343738 0.6280580197857685 2.1419996720853400 134 110 74
-1.0791969703673439 0.0744014315676365 3.0829972507939147 60 22 33
-0.4885046430240775 0.9009665225101751 2.1873587261104097 121 58 77
0.1880071612478004 -0.1069416189266612 2.0680841351099479 144 142 163
-0.9621506252923835 0.1749688719486213 2.9661323179731518 119 108 122
0.2072173891274619 -0.0927887735901167 2.0797427573793748 143 141 163
0.1957624533177102 -0.0633142271317038 2.0654801005284651 189 168 113
-0.0236117770540935 0.5223083441470031 2.3769279188184287 159 122 52
-0.9848589208883685 0.1560785421296632 2.9757624587044904 71 28 47
0.2068649331047171 0.8283410826193683 2.1392316374332152 103 69 83
-0.2859889602590794 0.9827062069725415 2.0687236852956334 55 55 55
-0.0114770325352256 0.5417531950209398 2.4244634324271037 40 22 10
0.1430283193060096 0.5310349979791079 2.4542160807791995 98 77 84
-0.4053784282263757 0.7094377179475313 2.3571560074104285 123 105 83
-0.0351467974628825 -0.1136773645957821 2.0758783386140398 54 55 60
-0.0268099082083016 0.5077823928199414 2.2392316750003971 139 83 32
-0.9525841125801096 0.0997581630624119 2.9980577627388012 98 87 91
-1.0643290252379782 0.1322876926055242 3.0221371056631718 83 85 82
0.7062443250511301 0.3568915715537594 2.4951828432542569 91 92 86
-0.9120393870332639 0.1532903065731413 2.9760330603421408 113 110 121
-0.1543653786855219 0.7773787025200019 2.2519248182730385 102 107 110
-0.9179045545718418 0.1828730125497457 2.9417506981956305 90 48 70
-1.0070864486556279 0.2036118059392904 2.9560289168531590 78 37 55
-0.5379092720023787 0.8823098523171636 2.2111712620349970 124 76 98
-0.4006207642314245 0.7811796578981742 2.2835420921077443 117 105 89
-0.1223599366847776 0.8349990372382810 2.1879441717529708 46 47 49
0.0642990244615481 1.2864222551446243 1.7415003580414445 73 82 89
-0.5311171478430801 0.9357080243116521 2.1468468525830962 77 28 49
-0.1764970540049379 0.9883605427820717 2.0474654675727653 68 72 73
-0.1384670431745500 1.2069429744060187 1.8412873930079470 80 38 39
-0.1272722354257043 0.8133036180585951 2.2133455802338733 102 109 119
0.0233976103011580 1.1449022876267450 1.8638404775449335 105 104 120
0.2154673488858771 -0.0698650671931490 2.0817774145638488 47 47 49
-0.9980177790743316 0.0306690100392960 3.1161468829086751 66 27 45
-1.0282097199592364 0.1690903148288921 2.9855653028617697 80 25 44
0.0927838071102756 0.8699422648056893 2.1471457690048665 61 70 69
-0.2534432700329593 0.9736765870064654 2.0715462563207607 45 32 39
-0.4075697106646322 0.3443608516572000 2.5670634514461517 81 34 42
-0.8604365544854626 0.3239715012306565 2.7951086421761446 115 124 133
-0.0303768682738678 -0.4741946285648085 2.2108580588691229 29 49 48
-1.0809850543854531 0.0214701051506960 3.1326093182110872 104 108 111
-0.5457768023929541 0.8045366815034659 2.2868441189659530 110 96 83
0.5561506510315621 0.5981129257042661 2.2955675129914859 39 20 24
0.8634667287815075 0.1626322961425076 2.6609375341822576 47 27 29
0.3987146799590017 -0.1815219567028646 2.2133920130488010 169 103 42
-0.2816252670868505 1.0456993178974674 2.0431183249015286 108 119 121
0.4899680576273697 -0.1973094288156708 2.3072960005722480 42 66 70
-0.0975797944027152 1.0929622997990995 1.9321961853311487 80 95 98
-0.0536056356102660 -0.4882610486706094 2.2239489482625854 32 54 52
0.5114770187425600 0.5126393868792568 2.3861862920336456 93 94 98
0.3778683310726809 0.6536844982242782 2.2836728278878766 42 40 41
0.4137481644947296 -0.2698574575017654 2.2447807901401768 231 198 127
0.4422033916569046 0.5603645367413668 2.2364057971676563 67 67 67
0.5307884060527622 0.4246610782229473 2.4694250065836445 57 14 23
0.2343198059310046 -0.1586046834206536 2.0886796778172045 144 148 185
0.2114725770878921 -0.1598098942742630 2.1512499316974782 144 148 183
-0.3413145159283668 0.9247203957182007 2.1438973972445194 138 125 143
-0.3183459995742670 0.9341419787764472 2.1256674378096068 93 85 100
0.3124168413909374 0.5073954643724481 2.1972192702054500 191 150 70
0.1991766432694510 0.9872513330699009 1.9820775211806647 47 38 57
0.8732557269062937 0.2616280621229970 2.5624999925024787 27 39 29
-0.4820022327832789 0.4569264027124143 2.6088190377800298 88 88 88
0.2143309959338333 -0.0832118379385737 2.0753376546144544 41 40 54
-0.0418297003472834 -0.1020287435292729 2.0963605228502744 204 200 165
0.3167406054335556 -0.1348744343946959 2.1141957664861994 52 45 37
-0.2871675557706516 1.0124490836369413 2.0477694049091935 42 41 49
-0.2553118283812236 0.7854710317727573 2.2531065390144014 107 92 97
-0.2776912533481709 0.9817957365298221 2.0743612920011953 94 85 88
0.1954245620873729 1.1676560884324982 1.8065376243495705 94 99 105
-0.3963098996121435 0.6717606867977404 2.3972495308119575 123 89 61
-1.7053818984737841 -0.3625337117144225 3.5883243478731699 38 38 50
0.6428523763598905 -0.0216702614764228 2.8855757572090361 124 98 125
0.6292718544014975 -0.0156987742643602 2.8843600413620427 123 80 97
-0.4770951585452476 0.4671893849516455 2.5924060672551206 58 41 47
0.0478815361920645 0.6829587872481562 2.3094943631611433 44 34 33
-0.4276978124690251 0.8886275462634040 2.1969217811847725 122 60 81
-0.4259609376226354 0.8875028676577070 2.1934695295286790 118 58 83
0.2513645795447977 0.4575091559586938 2.3124827059514610 190 173 127
-1.1075957262842497 0.1227210519594835 3.0275510039873641 49 37 41
-1.2937550454018898 0.1195284275667702 3.0682429387120060 60 45 50
0.8547293075488248 0.6531680808123618 2.1724908731758545 49 47 52
0.4340209002720867 0.8972506493198384 2.0362958807668057 46 30 43
0.0497571442367657 0.0392059448738203 2.0214432142448620 142 88 28
0.2062867533592057 -0.0126803137259585 2.0743594828181999 182 152 66
0.4520386384702311 -0.1775826354201766 2.3127484857593390 199 180 122
-1.6814226647221107 -0.3533111468222541 3.5853970625413121 97 95 108
0.0551640294221593 0.0673446721374311 2.0238924031675039 141 90 33
0.6941850323030870 0.0099435241912049 2.8540255714914826 126 102 126
0.6839874337475200 0.1987622779211045 2.6589404518274313 133 109 97
-0.5213193513001187 0.6255296719687583 2.4520065590028826 49 26 34
0.0048925192252058 0.4538285719688778 2.4157758946391685 114 56 19
-0.5820353128219107 0.7006709760110174 2.3895477758890409 118 113 93
-0.3865307589557112 0.7216316978143777 2.3387825439451433 83 58 36
-1.4225736169539132 0.0489754035745591 3.1543269770438882 44 38 38
-1.2356389876367664 0.0369066270612221 3.1429141308959236 40 35 39
