ply
format ascii 1.0
element vertex 694
property double x
property double y
property double z
property uchar red
property uchar green
property uchar blue
end_header
-0.1381633079178536 0.0280882689964957 1.2129301510545427 44 45 39
0.9653345196728351 0.2901019047677268 1.1234522653365757 135 129 115
-0.0926499028182514 -0.2252340266469180 1.0365151938009107 70 71 66
0.7888471198668039 0.3236548523383635 1.0715427280864178 149 146 129
-0.0850557005638284 -0.1022114636858389 1.0774740453629046 81 72 65
-0.0340647188537319 0.2267353008964361 1.1738451817706812 37 54 46
0.1281462731434534 0.2891853568485925 1.1090146063559401 117 158 144
0.6245954562196350 0.2741855470565268 0.9284428185872895 131 151 142
-0.0082052150017815 -0.1550561208409297 1.0277775716730992 91 99 88
0.8923705029107748 0.3549250175538323 1.0226984686067129 142 162 160
-0.2259824434459852 -0.0880062286611808 1.1710733872698562 85 81 80
0.8363460979984672 0.3411914881369427 1.0388555285800851 100 122 109
-0.1863617248590182 0.1421944651849252 1.3053032955388606 154 142 116
-0.0818047632064183 -0.2409348095323234 1.0189718120336517 152 164 142
0.0986558982884443 0.0541305087027043 1.0855579562320672 82 83 77
-0.2598987794080120 -0.0084294417586321 1.2223150021719051 57 66 63
0.6459384451440573 0.4224887814027939 0.8833757510653900 134 158 162
-0.0607198917984385 -0.2315788066776489 0.9993115348250536 255 250 242
0.0574331688755065 0.0542671938428683 1.0929199382607317 78 71 63
-0.0625553263747958 -0.0758817032823284 1.0856279955713488 58 52 52
-0.0574100984089400 -0.1368101193215670 1.0869235976100688 113 101 113
-0.0212688626277847 0.2828457579925073 1.0823276567537692 180 204 188
0.5905826319512820 0.4211522176180221 0.8629464103129016 173 194 195
0.2489247856432749 0.3615644723406340 0.9729110020560843 167 184 176
1.0587917865884500 0.3124732504921214 1.1398326690990574 133 146 129
1.0242527000186545 0.0554238165597888 1.5383279512825865 25 75 63
-0.0962440595701197 -0.1028878713247854 1.0843259732226651 84 65 59
0.0002982206179185 0.1866214722171274 1.1598128619609089 103 97 75
-0.0658531374518976 0.2305877653117915 1.1769789598279397 120 169 148
-0.0290122013950112 0.2718509751527300 1.1161452128778118 120 150 142
0.3129306722971053 0.2684443850374336 1.1327072419755890 120 137 121
0.8293209197259600 0.3669349516015190 1.0046234934637068 79 116 109
-0.0121069818621483 0.2416885740785386 1.1433220666165409 39 58 54
-0.2571618963541371 0.0534035290568390 1.4658299645770185 196 191 172
0.0261256597920761 -0.1581649924989140 1.0209630738960593 48 60 60
-0.1966974775486404 0.2029866575482729 1.2202635021069168 151 179 165
-0.1012634078358129 0.2149697532451794 1.1501690389925723 132 181 159
-0.0937886936435209 0.0407248262961437 1.1969792176062459 81 131 106
-0.2594231223698605 0.0108923361533086 1.2218335886486555 166 177 173
0.1018342396185019 0.1044961665814463 1.0360139822971182 85 131 120
-0.0474787702338927 -0.2164438400232543 0.9939419694768060 93 85 83
-0.2352414180883384 0.0275101874404421 1.2085758890494542 41 43 40
0.6158715525346149 0.4270628218401312 0.8766042785825117 82 128 128
-0.0554748588564395 -0.2216454641777853 1.0050171034514594 100 91 74
-0.1120995254505619 -0.1929896156231434 1.1088072839340593 77 82 78
-0.0615913623270340 -0.0908606360038617 1.0821273292027247 148 149 154
-0.0442710704195807 -0.0880675825260134 1.0734924594421116 255 253 255
-0.0624513703635751 -0.0836737204037598 1.0809319109633819 132 131 136
-0.2005630034499039 0.1934372740464589 1.2390181658517450 53 75 62
0.6874941158622577 0.2514153505182758 1.1812390363162717 114 148 134
-0.0586516716227567 -0.2595104361744486 0.9976440972067862 69 75 71
-0.3433459198592501 0.0572606438976293 1.4466860234208951 137 157 158
-0.0720334960800996 0.2166911619659035 1.1755266728150360 14 43 38
-0.1651041594222780 0.2066116909174604 1.2180314657702567 156 182 147
0.9108551123006851 0.3445515004702506 1.0445295630986928 153 150 141
-0.0079345452859089 0.0020326529345490 1.1137027883400015 88 80 67
1.4555646343693740 0.1743065523735462 1.3300254662527682 101 124 118
-0.0661912806649511 -0.2732227624905592 1.0091991359556198 145 134 114
-0.2150161537173311 0.0183242359280622 1.2019463899182277 131 113 109
1.1039352000515401 0.3209975927997242 1.0817465292460904 117 120 111
-0.2358927429692832 0.0208877731102730 1.2030402796271469 137 139 134
-0.2228234590168871 0.0704162079706601 1.3597608617423309 138 153 148
-0.2214605268632436 0.0726291092355565 1.4363955570607869 156 164 151
-0.1079705395173633 -0.1707313006492091 1.1258241991888753 85 76 61
0.5939898327798608 0.2910962439836566 1.1133506377991087 134 147 140
-0.0759682273315005 -0.0707035748657180 1.0834917038965570 113 86 77
-0.1115964439252707 -0.1128975269852891 1.0751829508107300 122 106 109
-0.0124364823339474 0.0170861495525468 1.1027314087063933 43 39 28
0.5255075275146603 0.1835313811777369 1.2943695206538184 122 158 146
1.0743504935860924 0.3169214920315934 1.0819485756285698 69 100 84
1.3464535257892147 0.2504176721695763 1.2007437053585219 118 125 109
-0.2444774692852767 0.0787529475612811 1.3517607243325342 153 165 153
0.0094428205789202 0.1783708892596842 1.1758813734550322 90 92 79
0.3134573232893361 0.3033046160878425 1.0749211991605874 129 156 149
-0.0902657314127171 -0.1838589323923798 1.0871689454056181 66 67 72
0.7018209176004507 0.4258258337129274 0.8784602915572060 139 160 151
-0.0471523866001716 -0.1631446207782599 1.0737179558313601 48 46 49
-0.0522918699205753 -0.2113065190945474 1.0008169702917444 245 232 213
0.0141725495507237 -0.0655587021422699 1.0668757906451285 72 56 43
-0.1236077859030241 -0.0020481290560929 1.1550521831648142 42 56 31
1.0383819853746805 0.3226398505451767 1.0635138648203890 133 146 128
-0.0949370955184270 0.2080860064810109 1.1846662830504351 10 37 28
-0.0780224594656500 -0.0994890890370113 1.0898858786273182 101 92 93
-0.0721198832855758 -0.2689602446273147 1.0138907069522531 116 114 102
-0.0947943461341120 -0.2349413447422493 1.0481696284541455 167 155 131
-0.1042928975923922 -0.2342525168387420 1.0913612918266689 73 88 83
-0.2292797452955782 -0.0583537029597078 1.2086209000184931 131 128 119
-0.0094520456239160 0.0200047982802363 1.0969839315963203 189 174 145
0.8248224825961138 -0.0133623122230754 1.5932702859543930 89 133 116
-0.0989240323759327 -0.2443224308623597 1.0872087445968672 95 105 104
-0.1061109697616926 -0.1563784926408696 1.0868973419050261 58 66 69
0.5707006029399009 0.3194029742526925 1.0596348883244826 113 132 128
-0.1863741270305309 0.1971192312929840 1.2353960432461857 36 58 46
0.6962841620775508 0.2393193927011100 1.1987179129464407 135 148 131
-0.0294465489820650 -0.2070437852251765 1.8540347111640096 136 173 155
-0.0421299753677579 -0.2023045605921616 0.9982606178394154 56 56 54
-0.0213132984996533 0.2797245065358910 1.0838237809730171 179 208 178
-0.2198482713067108 0.1352099461866036 1.2731163054367498 28 31 24
0.1321188768564366 0.2567385582286380 1.0972602410502748 139 164 143
0.0142283747168207 0.1696975800711227 1.1918859241672257 96 81 58
-0.1183572270920176 0.2022984420492769 1.2064546993872809 39 52 45
-0.0597829075973187 -0.2572118757886939 1.0202581557620614 77 61 62
0.7846082012817688 0.3363320943592458 1.0340984959030164 143 154 146
0.8932090464865978 0.0671387361480161 1.5168400767741610 115 151 141
-0.2319664466837953 -0.0036414801654630 1.2126951751230126 120 121 115
-0.2365300887229037 0.0421774192087561 1.2335590185182479 88 90 89
1.4913419331955358 0.2878243144240489 1.1676140517767599 89 94 90
-0.0557296029383346 0.2121350013032274 1.1938713733334787 61 72 64
-0.3138135166447487 0.0538348637675952 1.4619142750227296 192 194 181
-0.2618206375938772 -0.0083023704615270 1.2188760882451708 54 69 62
0.9839017933715853 0.4002951594345310 0.9159777280247000 174 194 195
-0.0930750579237236 -0.2481170705225511 1.0396748776463431 199 200 195
0.9273718401266569 0.3890289634060138 0.9422306584423458 149 171 169
0.2938044507188605 0.2664617361910930 1.1348058009938142 169 189 180
0.0186621891886832 0.1624336178290888 1.2015465768476794 117 98 68
0.6690675939943453 0.3869048081775446 0.9387408773345489 124 155 149
-0.1139498694743575 -0.1540095415500542 1.0862462260995378 134 141 151
0.8906858408453923 0.4172403923243000 0.8921034466800908 163 189 190
0.6577689692287680 0.4455670600151107 0.8335460027348482 182 208 207
-0.2144038014950082 0.1434878804758977 1.2619089824509599 73 74 69
1.4850209487993009 0.1981495389698896 1.3136762956877610 117 122 118
-0.2539154671305779 -0.0337239162031809 1.2197443782526332 53 59 45
-0.2456784531113599 0.0283273482632232 1.1924337560229352 108 107 103
-0.1109032417966840 -0.2107713600217932 1.1024837573531190 80 97 91
-0.1099794263887212 -0.2102799068432597 1.0931141027591005 145 132 126
-0.0638288806566817 -0.1493580028596461 1.0793947041124814 185 176 159
0.9046681945569905 0.3505629188495125 1.0263674860546108 91 114 104
0.0007185425301512 -0.0027481979885639 1.1085970367879399 32 22 12
1.3302528400664595 0.3141912248985239 1.1022838364228884 103 108 101
0.8651846059307166 0.4222240863758205 0.8839424507416264 167 186 193
0.5780894931847482 0.3939215134558700 0.9061050003341218 192 199 192
0.5524140545946371 0.4035815721838587 0.8916125609989268 171 192 183
0.9890956821886766 0.3521497811312735 1.0163081846227764 158 151 135
-0.1102809549035657 -0.1772159913680073 1.1006612815810772 64 65 60
-0.4082917880800756 0.0362542516899152 1.4877163371502100 171 174 165
0.8591315228456832 0.3643728823801599 0.9885289900371044 146 170 170
-0.1411105602611708 0.2110686589645988 1.2126748189365206 117 162 141
-0.2267617267208361 -0.0009020740088783 1.1985759472091293 112 80 57
0.4969687408235229 0.4073656189875118 0.8828134607899313 186 207 202
1.2002540231401246 0.3611454032855700 1.0243748868916500 130 133 122
-0.4335163213439869 0.0214921971809991 1.5045949493009361 174 171 154
0.9083976231123315 0.3609636619157123 1.0031277817426267 97 121 121
0.1526277997225376 0.2470162744851658 1.1102486037906765 102 140 117
0.2235838921084732 0.3333087171164871 1.0119166608447276 179 179 155
-0.0228584414211889 -0.1325210277596904 1.0567423418393169 96 143 135
-0.0690801278734474 -0.1335640161466401 1.0964015261099269 80 70 69
0.3699826943351345 0.2431889083285844 1.1602705289991493 66 130 113
-0.1036581570775532 -0.2512881678288642 1.0618475998637209 107 102 99
0.8711425854596146 0.4187035076153063 0.8843551135352760 118 149 151
-0.2792593328602533 0.1355733331883149 1.3288790077334309 151 181 145
0.4535947241596268 0.3289032776298508 1.0146339273489366 141 156 149
-0.1390942934401986 -0.1260739685773855 1.1120753476728040 52 61 60
0.9889038507397839 0.3835986651242797 0.9795912179488117 157 155 142
-0.2158305933279770 0.1727590187452902 1.2417209544062597 31 44 37
-0.2137015218652760 0.2252464410760503 1.3406415710058692 149 189 165
-0.2395711419755345 0.1398583975948766 1.2528159798024592 72 79 71
0.6893225828086308 0.4497847043705032 0.8287714077288013 189 208 212
-0.2171552392128120 0.1169526676720546 1.2427742948738196 138 113 73
1.0847333936044290 0.3249435654180561 1.0712742383267813 70 88 74
-0.0910946368619397 -0.2488586955005163 1.0866336036114896 155 145 143
-0.1052413014627060 0.2186690787391087 1.2024657164833168 125 154 123
0.5222419051116671 0.2132577701709936 1.2457739784576252 123 162 144
-0.1770818454903651 0.2003141518124043 1.2147397734010776 109 157 131
-0.0248687310514349 -0.1445426087036560 1.0836111887219713 111 123 161
0.2236522754924930 0.3517967329644464 0.9742880663613017 162 183 164
0.6867228761988343 0.2441678194419635 1.1790276130011799 129 145 132
-0.0951922255265680 -0.2608827738257631 1.0338687917108305 85 100 97
-0.4063981320249891 0.0195889754320861 1.5104624436109571 166 168 157
0.8832954217221395 0.3527207119578018 1.0306118405872164 93 113 104
-0.2236005259225536 0.0712692461401419 1.3578937585250233 154 170 159
-0.3652979738038946 0.0346934901684102 1.4908189493272221 188 188 176
-0.2896468389010096 0.0554092690061028 1.4621363636098208 195 192 183
0.0324328450128227 -0.0522776423710287 1.0537300750660847 151 134 179
-0.2415577158749026 -0.0835181643415190 1.2110401521711489 130 120 108
-0.2140872815462581 0.0786051698313277 1.4239137237045285 215 213 190
0.6937361825562470 0.4591408371526351 0.8332248263805003 217 233 233
-0.2923476021098558 0.0631274117256590 1.4500520389105633 170 183 174
1.0197420560371029 0.4296062787920388 0.8900003721376618 177 184 190
-0.3014203446502369 0.0523044080995638 1.4651125278938648 201 199 186
0.8336733459850223 0.4153232213222146 0.8932924340831723 158 188 186
-0.2423186864668668 -0.0877591456594115 1.1729202096623599 255 253 242
0.3466677025128541 0.2773976294859954 1.1407995937082982 179 191 179
0.8406582423209720 0.4625149738869336 0.8403105024185027 100 126 125
0.7096145048790898 0.4475021680864254 0.8131574782148495 185 198 206
-0.0671230028935693 0.2297793191618732 1.1770126909058496 124 151 118
0.4634752560348697 0.3903546919571453 0.9213638688150823 200 218 218
-0.0047081469718606 0.2617887371214866 1.1305988680851788 189 181 160
0.0111736242556825 0.2722204822129845 1.1106905565189369 162 197 177
-0.0973034616592372 -0.2391782562046684 1.0539271706504068 101 78 62
-0.0421683144749743 -0.1517399974709467 1.0760421123246879 86 98 150
-0.0861070112061813 -0.0474314369514920 1.6410243395166992 163 168 148
1.8089967070032256 0.2907643069790795 1.1519344871055537 105 111 85
-0.2388037860811381 -0.0768548161233991 1.1968877428202107 168 135 116
0.6078604490548380 0.3106838213456014 1.0769943156916291 73 118 98
-0.2121521721171268 0.0303428423846444 1.1953091312918378 108 90 76
-0.2501826972612381 0.0351448435012490 1.2346290028016229 50 69 63
-0.3322475740019830 0.0382349960778472 1.4842123895997636 195 189 175
-0.1895183886505595 0.0753682179601568 1.4318733076689512 196 198 176
0.8283288087656250 0.3290008820977637 1.0595486787474437 102 122 110
-0.2405865929994170 0.0675954613128011 1.4352397291957821 120 145 126
0.8427669857946303 0.3497843316400561 1.0279870150814781 98 117 111
0.2647003240210521 0.2498444781734440 1.1587082699257276 183 185 172
-0.0593731961168156 -0.1134848876370182 1.0746259506117559 43 43 43
0.7346167103840887 0.4539800429083793 0.8334890936730248 124 139 142
0.4951076546528926 0.3912004775469702 0.9196960101597191 161 184 178
-0.0346722606703063 0.2693610343871227 1.1079689051732178 115 159 142
-0.0692676354047139 -0.2705818804013376 0.9901294103963767 70 76 72
-0.0998827120040292 -0.1461255972719265 1.1118567222609215 58 60 59
-0.0024979111194460 -0.0784001914979552 1.0819987467947607 125 105 156
1.4692035008240372 0.1657553149707991 1.3545722393482198 41 59 47
0.7638751166060870 0.3652428686515666 0.9878740598464762 134 156 154
0.0154774329264218 0.1670344125886471 1.2182857650606622 53 60 42
0.2990598310522852 0.2888996634622203 1.0856198775623631 103 138 142
1.2628892112580850 0.3662387084405824 1.0062483195505949 136 137 131
-0.2657539309695946 0.0062025025122528 1.2211297096178533 62 85 77
-0.2052750409800031 0.0673428219228695 1.3841040035741539 156 168 156
0.7519110532713261 0.3565990199029372 1.0140053720199456 141 153 141
-0.3970810817573527 0.0355367400953170 1.4821056605148601 103 130 125
-0.0240871300951038 -0.2157156075101099 1.0046500963440745 63 62 70
-0.2197708830425230 0.1852929933987598 1.3117236036615396 103 115 103
0.9538905273166807 0.3296411560856574 1.0415795743720653 69 101 86
-0.1966604494141178 -0.0938699666307541 1.2034183716498281 36 49 42
-0.1984345108048476 0.0656402685846688 1.4614613265848346 192 187 167
-0.4684067520339000 0.0268355272823875 1.4796655296457732 166 164 141
-0.2586634417549989 0.1077284146552618 1.3535984857052814 117 156 127
0.1188803689491606 0.2853254740728827 1.0997822297005464 151 165 142
0.0377663904050433 -0.0243108046396664 1.0897150924079251 129 75 37
0.1694704117942363 0.2555961426786165 1.1080905945869122 173 178 158
-0.2094536579509650 0.1174484576118957 1.2431200660031603 105 73 35
-0.0067714120783799 0.2651236063040535 1.1241290114769285 210 202 183
0.9303707250846825 0.4648365215637557 0.7879715381160511 136 157 162
0.4703376929661653 0.4919543212111193 0.7531924783145065 218 238 229
1.0701982623710786 0.4244801054718244 0.8803290799907244 113 134 139
1.2698062086250577 0.1770155102778631 1.3321146772300447 129 132 115
-0.0100199425458340 -0.0004082618091111 1.1176185410485915 99 80 63
0.9086967775727037 0.4495422113393880 0.8474397571409477 182 209 202
0.7808800716750014 0.4756838512978093 0.7953672605409108 208 216 218
-0.0030468724281280 0.2406587878731891 1.1418897888606538 86 94 79
-0.1102205874719554 -0.1551030231615464 1.1020729614620082 130 129 135
-0.0539587287609842 -0.1003326225083992 1.0720541151983198 173 168 162
-0.0928687787132384 -0.2186869769379759 1.0592820408361372 143 109 82
0.7743923058840114 0.4052894952023029 0.9128328316919821 167 194 201
0.0558837038611375 0.0747819830408761 1.0770808641113008 63 64 59
0.4831136328183908 0.2480311395806229 1.1771550642520014 115 150 128
-0.0371185145994211 -0.1417610450586712 1.0901201403917034 116 91 97
0.8991053250947011 0.4802161536617696 0.7752495667767172 101 120 126
0.9359316980006656 0.4534270015216799 0.8055306128669680 183 187 186
1.3477868081674442 0.4203199803138606 0.9010146937976637 138 161 169
0.8057563768123365 0.4928463260228143 0.7765735493131826 184 202 206
0.7470550109808614 0.4783281639703649 0.7838418550704395 172 191 197
0.7809606444007584 0.4929038518577015 0.7840147819436799 132 152 153
0.5583869207980461 0.4530880773327580 0.8163194040153867 163 176 166
0.8949828668302735 0.3567260697709167 1.0058644915582275 87 108 109
1.2172614020728583 0.4503321580740455 0.8713310835657355 126 145 152
-0.2398457462023988 0.0744109614058741 1.4354772036170107 214 212 197
1.1141160961649579 0.1782116088638070 1.3297601625548552 125 128 119
-0.2476885771199793 -0.0806597026431749 1.2155202986858831 188 180 161
0.4844326154471439 0.2868030361711194 1.1149764295913169 174 187 178
1.0298724587937278 0.4450393048157216 0.8446259105909570 185 192 200
0.0222365091863195 0.1684714453053727 1.1904118224158067 70 73 56
0.0763850595649711 0.1110706535501875 1.4017279143118966 96 119 99
0.2426355916704776 0.3853053295499216 0.9325414298603891 158 166 151
0.9760114196984573 0.4562844118714240 0.8447631348845381 211 226 229
0.9420585975306838 0.4526485916897914 0.8329695530188274 111 137 138
0.8924186174126844 0.3598931952267570 1.0259329168734492 105 123 123
-0.0763988872820513 -0.2705160153941660 1.0545557609030951 79 99 88
1.2438730284180557 0.4492256409057438 0.8780045859167769 186 186 188
1.1380009816702921 0.4354419715568450 0.8849256185106545 186 202 215
1.1341883584323973 0.4606644657541505 0.8333657223223555 165 183 197
1.0900386924486798 0.4695619188380508 0.8306038089311404 219 236 244
0.8416879534698074 0.4009314937538064 0.9150227378331441 190 209 213
-0.0427193140181964 0.2085504611009297 1.1464098297649448 88 94 84
0.5201003623040600 0.3853856094086031 0.9156215579697042 183 185 182
0.7769238817623567 0.4990058456736649 0.7583631325529917 113 143 141
0.7414068617938673 0.4918542288048815 0.7889803452997993 204 221 228
-0.0627822743967580 -0.0683931552547025 1.0787260663286313 113 103 104
1.4839744474510503 0.2067897091061061 1.2985603860915478 98 119 114
1.0946119585076637 0.1701816819932514 1.3392476256599462 111 125 112
-0.2665701388577431 -0.0702814920435105 1.2250637553484756 164 134 106
0.8307204805510768 0.1859031503954861 1.2939954156797593 110 124 109
-0.2341544480672129 -0.0213167366328100 1.2194159777038387 145 143 120
1.0913633628852939 0.3108566863887818 1.0919186651038695 102 108 94
0.7057263017943111 0.2264638349958532 1.2184751380452132 132 134 120
1.0623179978360360 0.4462980924781750 0.8487300975728582 112 144 141
1.4424071031663503 0.2739020712851838 1.1640169687270174 101 114 105
-0.1067777966665467 -0.1381593412380978 1.1048498426363302 151 143 130
0.1535696079231984 0.2354301935704881 1.1100508031273095 120 152 139
0.9317553420059030 0.4775900577312703 0.7886301918903221 110 138 126
1.3346134587524088 0.3834579897485570 0.9858371967454742 132 131 127
0.7416502495727983 0.4342830884182304 0.8584866680507854 126 147 140
1.1157117713252822 0.3417924013336358 1.0282896015546537 117 131 116
-0.2103567527610397 -0.0820765827400545 1.1696502428715223 117 92 85
-0.1591983619302572 0.0717366454569245 1.4404088376780726 156 178 157
-0.2046730108191071 -0.0636031648854375 1.1570652318835000 85 85 93
-0.2428253673027367 -0.0521001124774446 1.2123747384052583 141 129 117
0.5972978532142690 0.4309520603035073 0.8427883459709963 191 209 213
0.5794816011083136 0.1986018927497289 1.2828088137216858 127 152 120
1.2178110807151761 0.4529790448313238 0.8535595566259356 112 137 144
1.0622838040964868 0.4216323442984932 0.8696832840402894 106 126 133
0.8153336859609112 0.4597852400213483 0.8063521706439861 189 203 206
1.1125142244087995 0.4420265435439371 0.8555604978631308 122 142 151
0.7897552212039850 0.4635184876397707 0.8085461098574660 104 131 124
0.1284347985964052 0.2891942060224578 1.0928017352076780 176 174 151
0.7220710103234723 0.4727119882452598 0.7855941081649449 130 150 157
-0.0033515015747273 -0.2021848027847892 1.8480738347093588 132 165 148
0.6677185220460842 0.4822940996021536 0.7365594026920654 140 160 167
0.2210469180869426 0.3953737365600534 0.8953496260472240 155 167 147
0.2083189932422624 -0.1464262296325295 1.7443588668952135 136 170 154
1.2395304586366460 0.1018184118819339 1.4720394827556313 35 55 43
1.3552100148502582 0.1329457458309617 1.4128598288446343 41 57 44
1.7435858688847039 0.3731794565737507 1.0013546835147458 79 98 76
-0.2423462154525579 -0.0442438624342408 1.2095460270173477 69 82 73
-0.2229373471970049 -0.0928428463846990 1.1887294333772846 63 66 55
-0.2326968216798144 0.0590284360756013 1.4600346988660813 202 200 179
0.5286277224723136 0.3034219915509309 1.0810903147963868 158 164 160
0.7385825624746237 0.4506563699118119 0.8165758176183537 87 113 112
0.2545698076814640 0.3570235034566573 0.9823617283185474 104 131 122
0.4334648529275754 0.2655491347276683 1.1416995839452315 164 165 149
0.3089530769700073 0.2797285232838471 1.1066816715085488 127 142 135
0.9112148535462623 0.4579608192250820 0.8034899317580212 121 137 136
-0.2456841787140321 -0.0911000164092918 1.1912588251044971 71 62 53
-0.0111256657149372 0.0063360951996667 1.0967774767425251 117 95 74
-0.0413129327792202 0.2334769681030695 1.2068295940981051 37 54 44
0.0008297391977884 -0.1369053225084911 1.0456930741574331 25 56 58
0.6570084118773198 0.4600929397316849 0.7864465888676709 122 154 153
0.8134853036022467 0.4347810801439645 0.8299693899359269 96 123 116
-0.0698497779635569 -0.1592661677218378 1.0941865718842108 53 47 49
-0.1964182904147133 0.2053851543588530 1.2197024063705286 165 189 157
0.4495830667598409 0.4008289820438812 0.8130901296209929 138 157 153
0.0731767767283918 0.1138669066866107 1.0592601020272272 18 20 19
0.9312216545483865 0.2739946081347450 1.1122576749768813 127 148 129
0.8714291993901365 0.4224251139060772 0.8831702440614846 175 194 201
0.8012416324915008 0.4046960299349722 0.9314891812452549 158 190 185
0.8375038271341462 0.4105354260377259 0.9149755710094719 150 179 175
0.8783529166711054 0.4807959384279690 0.7904572608435180 184 203 201
0.6373080879697088 0.4534984905927595 0.8473355008066727 185 204 208
1.3349743958250915 0.4224177601514025 0.8662475175622338 97 102 108
0.5104431296411140 0.4927961692928300 0.7737684961605403 191 207 204
0.5103020840734646 0.5050121130944488 0.7624329012213404 206 225 221
0.9022971886749643 0.4920996620412602 0.7793222154328990 102 133 127
0.7110212323809794 0.3090051021807012 1.0746652031070825 133 146 139
1.2273579056164703 0.4225457511667675 0.9091479069712228 193 194 199
1.4322560135556137 0.2389539780336385 1.2237002400297781 91 112 103
-0.3662373533147216 0.0258343855358848 1.5032647522049334 146 148 137
0.9562817117631799 0.3976610558011374 0.9345702904323124 132 162 160
-0.0759403941509215 -0.2688721661512696 1.0256975028715580 156 157 141
1.0760377911850498 0.4411844914349218 0.8499772136436565 220 238 248
1.0825861616044183 0.4526569904104691 0.8333022031904822 201 223 236
1.3960031672352355 0.3412770943139913 1.0434412093616947 106 113 105
0.7715022451906381 0.3742089186787451 0.9675053490187696 131 162 157
1.4041941550043480 0.3535035731320104 1.0310169475710893 98 109 103
1.4127099190929382 0.3814962100062970 0.9883973146032539 122 125 116
0.7177289491502892 0.4001917609540669 0.9265641954790900 136 165 160
0.0779029633974021 0.2154057825931850 1.0971522084222824 74 74 72
0.7982052655685781 0.4561243999091539 0.8405852653768547 223 236 244
0.7535712646026498 0.3221951933216356 1.0622108071637415 79 101 89
0.8819635641780528 0.3836691638717256 0.9573894103226623 168 180 180
1.0685343086436436 0.4367048752677748 0.8110639013296566 126 142 157
0.9484498237624103 0.4270045273455056 0.8860327133921555 128 159 161
0.9475034778857646 0.4360516001850058 0.8715295783220758 158 186 187
1.2992974994069728 0.1404741240629613 1.3984260706715437 132 125 107
-0.2115675591271392 0.1314627459003147 1.2314980902318868 90 84 70
0.9732209381893117 0.1484691478128233 1.3705014705016725 95 121 108
1.8908097444773675 0.3805234617500426 1.0042842260057248 92 104 92
1.7886510716833901 0.3641526440484580 1.0417198825448273 99 116 98
0.7047250925597318 0.2013029550193041 1.2545428644456658 120 137 119
0.3302625039494660 0.3830898348157272 0.9525314688386942 158 187 183
-0.1495134850071838 -0.0884251217540075 1.1519111093456442 157 146 150
-0.0249391662927643 -0.2001138149353476 0.9980409231553881 161 166 224
-0.2484852233547610 -0.0693688951249684 1.2103171053172999 255 225 194
-0.0490708967479447 -0.2031510362273736 0.9935187015244674 71 69 74
1.7162988603460994 0.4034324648217340 0.9611140406148142 109 113 99
1.3236697967607951 0.1237577158029622 1.4400094694286065 34 60 51
1.1128399734471761 0.3411796856449184 1.0420661257867285 129 142 114
-0.2452965182528341 0.0349113775571080 1.2212457206970981 115 110 90
0.5987775173669303 0.2665673739764940 1.1599210309597234 146 152 140
-0.2189375643037255 0.1136859074862822 1.2486972431381567 44 44 34
1.5774737020726417 0.1864293635859500 1.3415059448567630 29 50 35
-0.1169972023291395 0.2165662227734696 1.2058932956186961 145 170 138
-0.1291215846257767 0.2124901599444429 1.2052430441152078 115 161 132
1.1483033958984550 0.4525832099535822 0.8198417214842948 157 172 193
0.7140305138259199 0.4398571366212856 0.8397007898456755 206 206 206
0.4284359290048835 0.3834379682920909 0.9347215107676617 169 184 189
-0.1062989376182524 -0.2220652468282175 1.1004564743425429 87 81 67
-0.1076934419972512 -0.2122481081563294 1.1062302231948349 110 89 72
0.5845503508870200 0.3917330750218658 0.8842539551880302 182 184 183
-0.0649021845889400 -0.1510178436429529 1.0789045294604596 151 134 126
0.7388748268941557 0.4679157608402539 0.7955828805821379 123 147 149
0.0840814636070120 0.0725115661591647 1.0696672018964368 68 71 64
0.6543877310907588 0.2822361145078149 1.1217454567791822 155 167 157
0.0752491893601176 0.0578149290974156 1.0870102826034125 39 35 32
-0.0799538850101560 -0.2707579330489926 1.0177479037208665 45 66 59
0.7856020693994015 0.3358628657321395 1.0438168108240471 166 163 144
-0.2399006361912124 0.0833103609872459 1.3566972540199942 213 202 174
-0.0303957588534062 0.2346106364571474 1.1830294518877229 33 49 39
-0.3471602609962526 0.0402601498527298 1.4930843444691326 108 134 131
-0.2452403512743837 -0.0232758320711360 1.2524174826465000 47 60 50
-0.0828223353695414 0.0544597198036899 1.2182273927630909 109 132 112
1.0776515178734878 0.4670755851416094 0.8023423429197585 161 176 181
0.7848862593844412 0.3977458319436764 0.9365426066808947 179 195 195
0.9380099402430293 0.2796416850648440 1.1354348631855011 118 130 108
1.1859937622714549 0.4580215852333170 0.8288415473300937 173 185 185
-0.2465852871745066 -0.0111202801809480 1.2145643211561030 138 122 109
-0.1051193629544706 -0.2231396904619808 1.0752928457539941 153 119 91
-0.0740781532234482 -0.2688940761790353 1.0123026515916524 144 133 113
-0.2438642444612930 -0.0901463091370948 1.2068159234141436 139 123 98
-0.2579548793866505 0.0657715030766953 1.4556073503452227 187 188 174
-0.0839648481700137 -0.2562698161177203 1.0323549576284119 122 100 89
-0.1021220018822379 -0.2317664318987440 1.0675184069084411 142 119 103
-0.0246874364192662 -0.0815064389495031 1.0639659575575375 150 145 209
0.3334710456215644 0.2783518501385759 1.1305270346020064 139 145 135
0.6857326551478299 0.2470745096673334 1.1792987645547555 135 143 128
0.6861289206820018 0.4998950240521164 0.7418212398376876 184 190 188
0.2423456303355147 -0.1374124760721054 1.7462480205103854 135 167 152
0.2988447211843581 -0.1229438614478706 1.7187082238684319 126 164 149
0.3439333158887536 -0.1142927137426551 1.7123195760389884 123 154 136
0.2204705606733144 0.4048131186957594 0.8924418797411651 88 116 101
1.0378850284908494 0.0439940293630912 1.4928960945999445 97 127 115
-0.2282955822343234 0.1007765606697209 1.3876475497696197 138 151 141
1.1768848497981226 0.0889385230484281 1.4811900545142793 30 61 45
-0.0165238648979775 -0.1562799081247077 1.0219033180105430 96 88 75
1.0022160554632531 0.4169721243380697 0.8926578058418235 136 146 147
-0.1955092532791545 0.0667993852629163 1.4306717994770732 143 156 128
-0.0690480116097975 -0.1417973028370433 1.0748675180148335 129 106 132
1.0588667239409697 0.3518575529243135 1.0226895320597664 81 112 96
-0.0662822858662232 -0.0820802540794881 1.0769327545956284 255 254 253
1.0361967188989285 0.3689643482707181 0.9737549491219655 86 102 101
0.5317211219727537 0.2920851378927605 1.1123174812468697 182 173 158
0.1685536736515949 0.2048873168461668 1.0703620776910565 179 176 161
1.3874472815221723 0.4659505287182679 0.8474541857926710 210 209 215
1.3139397579266980 0.4806158748505949 0.8031630727912986 186 205 209
0.7608402531214828 0.4802771171559325 0.7888231514803600 225 227 226
1.2801200008451779 0.4959880809346930 0.8134377212297750 195 200 204
-0.0986279373675768 -0.1529762576166635 1.0890032108220875 191 187 175
-0.0577363262766499 -0.2326007950329007 1.0002200771192660 239 222 196
1.0552931099840479 0.4616856934258035 0.7871518650681634 239 236 243
0.5333586119634284 0.3496129999028545 0.9976321179326019 166 182 179
0.7169069185998284 0.3739506235192100 0.9493388467583779 182 197 192
-0.1116531637775780 0.1069017258501498 1.2837327058475929 103 87 61
0.6098826065905265 0.3804763296635121 0.9491698818030456 164 170 166
-0.1154038587009434 -0.1271982114922318 1.1021675378368399 152 145 137
0.6505669214748288 0.4537462488908877 0.8014963550383046 216 214 219
1.4302773813822911 0.1733257354778955 1.3571225413039674 98 111 101
1.1951256673189048 0.2058534950035484 1.2838654440245021 120 121 113
-0.2536852258463267 -0.0816746563416278 1.2162591365562654 116 90 75
-0.0039054793900990 0.0080625520633170 1.1196594836710740 47 24 6
-0.2228948068847898 -0.0069366091524082 1.2026186525786557 159 138 121
-0.1271470716346773 0.0795338961290661 1.4134225336214878 136 154 130
0.2023947052787254 0.3870317346383774 0.8986842710060597 80 115 95
-0.0989576690693433 -0.2369466356972442 1.0938629308880836 95 82 76
-0.1050610491494186 -0.1231882056676775 1.0969492440702728 71 59 43
0.2052862257341860 0.3916815330806599 0.8803590030474155 180 189 168
-0.1049693569816858 -0.1945979027057103 1.1142971610934955 100 84 68
-0.2145362165238220 0.0747946833505936 1.3675725870874478 167 167 159
-0.1105423298332847 -0.1458757479845827 1.1020306251944922 106 88 78
-0.1894429515202421 -0.0612993168856188 1.1711315279995564 103 98 102
-0.0649765115007532 -0.1254330152184771 1.0822154642960105 131 118 164
0.2767581412940405 0.2941210578632077 1.0761693477402972 172 180 165
1.3876027084309372 0.4499514536450901 0.8514763416433097 102 120 122
1.3186674844092372 0.4235472544950878 0.8788836338351705 165 165 173
-0.2545935829943340 -0.0130640169137697 1.2229024116683753 136 120 104
-0.2545878680586623 0.0215933590675782 1.2214434945163959 253 254 255
1.0886588374147914 0.4589816232509074 0.8213154028285301 127 138 140
-0.1015014845176095 -0.2478661084795597 1.0808755657304705 86 88 67
0.8847080231280327 0.3630752511471776 0.9512858030624305 170 166 165
0.9043908376164450 0.4212094923142849 0.8755151872160529 126 137 133
0.1173221437271342 0.0675875266836166 1.0766363889991770 34 40 36
1.3920949731136405 0.4683389544572577 0.8337365968318801 110 120 129
0.7287069132053928 0.4487490643648400 0.8147981291052392 116 147 142
0.9539076841001211 0.4719406917580139 0.7902408480796448 192 197 200
-0.2786901641325817 0.0575551079538060 1.4601212036159572 136 150 151
-0.0250336566219540 -0.2068070175389349 1.8590708312304320 124 149 127
-0.0496764469710630 0.0629871825212757 1.2157402625382450 29 29 29
-0.1807669050863895 -0.0673011910743985 1.1801991459443526 255 250 249
0.6122802968544080 0.4156964019310723 0.8274913511148040 128 149 150
-0.0918892056398168 0.0379535435459940 1.1950995848392731 120 143 117
0.4611789005472283 0.3939598373007282 0.8543057331996470 131 154 146
-0.2126342155757274 -0.0088126300874327 1.1918232546976775 151 124 97
0.5078095143564146 0.2715620782499402 1.1492716993006526 90 124 107
0.3973653055454911 0.4065485405352190 0.8721826397776530 130 152 140
0.3630663024522225 0.4037765160063640 0.7801057078862152 160 164 167
0.3857134463658842 0.2914630002874335 1.0641678312942628 183 176 170
-0.2566427541698584 0.1122082291764881 1.3592209576119154 142 169 134
-0.1036719846553982 -0.1302408634509719 1.1381947060309210 41 42 37
-0.0437116842057824 -0.1067580472280408 1.0720581203966726 63 48 43
-0.1647592869457944 -0.1139753201838288 1.1394659770329625 37 36 32
-0.1904957359318633 0.1834990947721858 1.2763403222320366 38 48 40
-0.0658633671459215 -0.0636305923493877 1.1304628407826531 169 97 38
-0.2592866360258759 0.0668976418548363 1.3659625666353457 164 167 158
1.0194925221831743 0.4392773148432635 0.8795592695675828 224 224 232
1.0696806512945012 0.4696690110281915 0.8001390691372710 217 216 224
0.9008758219644943 0.4211660222274360 0.9120895940004303 202 206 209
-0.2161062497709759 0.1009860863894178 1.3839354914576529 151 151 141
0.7626302648187072 0.4897666633696014 0.7799943358975754 208 212 211
1.5120860857327010 0.4612316044509536 0.8581603213191363 213 213 223
1.2102124656059983 0.3853056902522161 0.9711241393384683 144 158 161
1.3130548575442422 0.4377459846336466 0.8840594782657757 173 180 186
1.4489037746429914 0.1739033499645286 1.3303984565447673 87 104 86
-0.2308342743765108 -0.0580114753577985 1.1911958256563122 129 122 106
1.5691908901242322 0.4871926843906605 0.8711018248583842 166 171 177
1.2730632905783361 0.4170274335098190 0.9386410766692832 162 167 173
1.0964476155137055 0.3964715201032405 0.9541939752154609 143 155 153
1.0137949692221717 0.3961375244146996 0.9352217963660343 204 203 199
0.8999731900213288 0.3921046613624311 0.9295344003520571 169 179 178
1.0312429412803146 0.4610835613218020 0.8167028850705971 158 161 166
0.6257711424117831 0.3722026990726612 0.9273369155045147 156 164 166
-0.0842955638347005 -0.2728413351432490 1.0366438988491931 139 137 125
0.8080294240939577 0.3897731728290739 0.9525697571971397 164 181 175
0.8010257321372296 0.3988876548626836 0.9176532481798978 175 185 186
0.7120851227555860 0.3742184786887029 0.9611174777281011 169 175 173
0.9415644516660279 0.4575963684879334 0.8219421393466469 199 199 201
-0.1101705800617166 -0.1379982346909721 1.1112861890531094 76 59 49
0.8040015230394489 0.4758189223863845 0.8008678847749836 173 175 172
1.2055029169569491 0.4405557479504442 0.8607968295089418 206 209 214
0.9084254880118744 0.2728734841244392 1.0926501564991797 137 137 125
0.6509500560369644 0.4444106392999967 0.8306869471973957 194 192 195
1.3373775026519887 0.4905148256133713 0.8159118378694062 113 125 121
0.6573774434423431 0.4603026898799429 0.8085012057785433 156 161 165
0.9984592684315585 0.4033794309907058 0.8778572339667037 130 144 147
0.9190654759466196 0.4006028587856502 0.9033871478934640 229 232 237
1.1180964915974450 0.4710644025009138 0.8012911617723182 224 233 232
0.7157710658291218 0.3571976836454677 0.9512297670161782 154 165 167
1.0624114164583180 0.4857998576340204 0.7922169773114180 177 185 187
-0.0870361753066318 -0.2587817953477654 1.0372580978731052 255 252 248
0.7235969738817658 0.3965766266653996 0.9221671314950517 124 140 137
0.8106600258037978 0.4552391653432659 0.7905743709397061 153 153 151
-0.1082084199084490 -0.1391601982461454 1.1077290645725910 169 167 152
-0.2511474559989550 0.0067141701202268 1.2173476662010509 133 116 100
0.9890370969941812 0.4137969419178661 0.9118896976465065 112 130 130
-0.2475052236969220 0.0180615351032471 1.2135440190488482 153 133 109
-0.2000514421857922 0.2012675447026336 1.2395628467669810 148 175 144
-0.0496915003730697 -0.0810866453309915 1.0780617469750595 77 60 53
-0.0694473094389400 -0.2241947675814489 1.0230245462161192 143 114 96
-0.0667927822916583 -0.2192408092557652 1.0181595503790457 90 74 59
0.6681646750882277 0.3618478007326609 0.9801079409844251 151 164 157
-0.2458859366227313 -0.0609656910038551 1.2094855533984483 116 86 78
-0.1068101205958227 -0.1912346759718667 1.1001277318346532 180 145 113
0.5438165808703969 0.4103467649097760 0.8784253588242801 180 182 179
-0.1131881515412553 -0.1780793876578371 1.0830944789899797 90 83 67
1.1907810705959483 0.3657342647462755 1.0049247698225603 85 102 96
0.4900914011390489 0.4066423267072104 0.8782703188797082 179 185 183
0.2469808567147345 0.3599631085946273 0.9718245973793644 174 175 157
-0.2471750373966502 -0.0016869938931454 1.2086166446764957 156 138 116
-0.2449722855071542 0.0067809858120970 1.2066722638986609 183 165 155
-0.0722191444975026 -0.2644975483741414 1.0073341093372481 55 66 49
-0.0963654033901958 -0.2448393956309116 1.0498738640685057 175 152 134
-0.0557203279010123 -0.2207151486126721 1.0157457687886122 105 81 71
-0.2455371386659480 -0.0109696884761331 1.2081635683670757 105 89 73
-0.0582008738609826 -0.2139944597679368 1.0177334361235140 215 195 162
-0.2524470564753210 -0.0019667099808115 1.2200336056243939 134 115 100
-0.1159164204515419 -0.1817104206881686 1.1096681193307485 188 145 113
-0.0406972298178526 -0.1488790271397018 1.0763497956047214 146 137 202
-0.1582384989521273 0.0719876595471159 1.4413346476978728 184 190 164
0.6745631993767821 0.4275290992790533 0.8558890158198089 130 143 136
-0.2211769062400557 0.1112993247117233 1.2461461639068132 64 54 42
0.9725007118931404 0.4319954934011733 0.9015009904766556 106 131 128
-0.2659716936141682 0.0798201978284625 1.4146436156565103 191 192 176
-0.0631798942269419 -0.2761002879337827 0.9889909205157636 48 62 49
0.5109121160387512 0.2937632907580459 1.0753916251831457 168 166 154
-0.0593368971149451 -0.1155634903318976 1.0743238530166281 44 35 40
-0.0437456806423306 -0.0698448110807064 1.0498650824038511 142 119 175
-0.0003811028914355 0.0110186889224363 1.1025418220161074 125 91 56
-0.3458512730868154 0.0569242140173229 1.4464807600446306 192 194 181
0.3342916214469391 0.3671888999724909 0.9384902328599271 130 151 136
0.5738659620164439 0.2765329563694400 1.1333379778392663 94 122 100
-0.2368813116329377 0.1955169516175957 1.2461224805428219 169 189 161
0.0458578925454077 -0.0034350112432301 1.0679461252459881 37 30 20
0.7758698900448189 0.3209320945422639 1.0470258621610009 154 152 137
0.4228421302318156 0.3057654118674022 1.1266372206445414 184 177 167
0.0460163956038014 0.0102676249425359 1.0686617494046964 39 30 23
-0.2131088443413835 -0.0469207929233711 1.1893825575292472 31 31 29
-0.1876233091494608 0.0117722981995558 1.1824548411059794 42 42 32
0.1978885654608772 0.0925219638741724 1.0782602217982251 88 106 90
-0.2444774403623317 -0.0095986388530016 1.1930838083026438 141 118 104
-0.2612582382444908 0.0081427865937988 1.1955246651904194 91 76 57
-0.2369631601839332 0.0171495951557907 1.2007022179255855 138 110 96
-0.0022067151410457 0.0097669571325431 1.0872246880384535 124 98 75
-0.2515061796672162 0.0368210642653315 1.2076416110754238 107 101 87
0.7571300756533093 0.4821625297864099 0.7685870174922960 209 213 212
0.6818682818729711 0.4793315455464556 0.8041835962362546 157 161 164
0.7803932247232179 0.3817783193443230 0.9025411432970364 183 191 194
1.0550992117229416 0.4907454026099106 0.7830764475263865 169 174 177
-0.0783406202425394 -0.1131149422480697 1.0782556008543520 107 99 146
0.7238272073284387 0.4778088728164692 0.7909749132608356 198 202 203
0.5689684106715283 0.4210824671998535 0.8079033016383489 205 209 212
-0.2294717415892593 0.1016820445191563 1.3706753923381798 200 197 190
-0.3672875816501059 0.0519897045236015 1.4623185571931121 178 200 179
0.4265888669750807 0.3978603532043470 0.8855237992706105 203 208 212
-0.0269541169630964 0.0120155362317160 1.0925592608197252 86 55 35
1.0418629178702776 0.4204286021733575 0.8930647638523067 233 234 238
-0.2319831325991998 0.0133812549825212 1.2115461392428810 138 121 101
-0.0907295487603322 -0.2618023208583751 1.0120235241923086 60 61 65
-0.0385469328172342 -0.2222324005268509 0.9987943460671215 137 149 189
-0.0693966270449947 -0.1644601029050763 1.0844701438339748 136 124 170
-0.2529699044079561 -0.0779913497535697 1.2149118852009586 228 194 166
0.7934461941966356 0.4121035150656885 0.9121032349918297 192 201 198
0.7184508530711349 0.4112182600746623 0.8998448080792563 186 192 192
0.8407834187415949 0.4733267112051610 0.8014010445311712 229 229 229
-0.2300203945184508 0.0100990497530685 1.1930995961662763 134 100 75
0.7377787977497759 0.3631562637355747 1.0131660303544510 92 98 88
-0.2506679235886016 0.0245462897280448 1.2123696898991037 66 56 47
0.9259442973092912 0.4571552117331889 0.8216160231114457 166 166 164
0.4197058856902643 0.4580502190588832 0.8358658566952648 185 186 188
-0.3862486414277235 0.0091702063769057 1.5222828544343805 168 170 148
-0.0719363476736379 -0.2596446784373350 0.9875374546710908 209 187 173
-0.1623302675629521 -0.0884088050457004 1.1451447739245535 207 186 205
0.3941453517351490 0.3320634031358642 1.0066660593373293 162 171 166
0.3204790196938755 0.3461890262997077 0.9589711027962545 175 180 173
-0.0760399610264211 -0.1445885628739733 1.0983262581876510 84 65 59
0.7689667502034159 0.3681433480170078 0.9898340041474002 153 154 146
0.2476210875435025 0.2428095025756866 1.1237936100514505 124 136 124
0.6395805938509019 0.4273254871819329 0.8324287263396710 133 146 139
0.6709619235300566 0.4657825988843656 0.7500954309997661 151 157 157
0.3613981580885950 0.4097417878461196 0.8904065570230028 148 159 163
-0.0662290185980365 -0.2298581266577570 1.0000676125158052 175 148 131
-0.0620957912476238 -0.2200644363922958 1.0000953645948085 95 72 56
-0.0244191953844947 -0.1868863516406675 1.0003262222326732 45 46 50
-0.0796797446283272 -0.1225870782845692 1.0903572615585242 82 59 53
-0.0058014808682058 -0.0677541131475489 1.0498151185747226 68 48 59
0.4973429400608927 0.2839610655089030 1.1309871122006012 189 183 169
-0.3996577585373457 0.0217240273762268 1.4921636995451035 117 133 122
-0.0525503963439575 0.2408600308093286 1.1587409817834309 153 171 145
-0.0854541055766037 0.2285668477393350 1.1800227248509672 159 179 151
0.0070635245935240 -0.0740403972415464 1.0537393955918055 72 70 71
-0.0864326615768025 -0.1303048457008525 1.1472426575875090 49 45 42
-0.1836461950772297 0.1869417755102290 1.2217138270685921 31 45 32
-0.1825797182301681 -0.0906266291863650 1.1618756258930127 46 39 33
-0.0623649417777329 -0.2306285454525241 1.0499800372758485 74 52 38
-0.0462324115768208 -0.0472191977219388 1.0786484636914271 35 31 28
-0.0104848189208957 -0.2096034714501216 1.0418930431359763 84 67 49
-0.0971081526028701 -0.1667257891052366 1.0892101825271621 147 138 121
-0.2606482445208733 0.1284929239872369 1.2467770361843533 152 144 133
-0.0856852210790666 -0.1344898500392979 1.0727915363281562 119 117 166
-0.0897729256550699 -0.2540239481715100 1.0770449452672586 104 87 67
-0.1016302149067274 -0.2356780042714203 1.0854630849699332 156 137 122
-0.0820303810372330 -0.2209998487132272 1.0229667723569189 144 117 96
-0.0722891022106997 -0.1673346448311182 1.1374661836883935 162 146 130
-0.0929963083611677 -0.2589990253778878 1.0459564031219888 200 203 186
-0.3049944054645885 0.0689015875732178 1.4179962900125376 173 181 170
-0.2223576589718228 0.1465236496203242 1.2920362715124509 159 160 146
-0.0577666620701558 -0.2751885144754176 1.0275332030876325 59 71 57
-0.0682149039959710 -0.2698803375173325 1.0406884241732612 255 243 221
-0.0753733359745121 -0.2711809594992587 1.0531415361970073 128 132 118
-0.1460041332415263 0.0859344800583388 1.4548892967067535 135 155 127
-0.0248594070425538 -0.2040060143285337 1.0046647745661190 70 66 89
-0.2015339747358690 0.0866866912152696 1.3947163893720820 157 157 145
-0.1079801140009685 -0.1288917128421467 1.1079727653814515 153 133 122
1.4576991692980958 0.2761839355104068 1.1689030871763231 122 115 107
-0.2201325222187906 -0.0458855507363704 1.2100794367134646 109 103 89
-0.2782734787707848 -0.0139807058229874 1.2060168011165484 58 66 55
-0.2413067691168530 -0.0902076967105195 1.1530309361197926 147 114 107
0.2135581055454371 0.4279739178997329 0.8515469149932540 174 176 152
0.2041768171844317 0.4320636972675376 0.8494118116680737 92 126 93
-0.1029160193644890 -0.2672671157171413 1.0309731400545266 255 243 217
-0.0351612002291388 -0.2560710149694055 1.0408478365037617 93 71 60
-0.0864721312872083 -0.2478168865891657 1.0435447953122456 167 146 129
-0.2388256483726396 -0.0020378911028782 1.2073596404168008 82 64 54
-0.0436915048605541 -0.0736971799609782 1.0610393575523334 54 39 46
0.1429504496340629 0.0921867224214714 1.0745413075355092 46 57 51
0.1659150999114790 0.2186683931825435 1.1030393522813118 186 188 167
-0.4561881899615450 -0.0197528376243547 1.5180907364977969 169 170 156
-0.0804201408928113 -0.1613548913922763 1.0889105587020316 100 96 93
0.0659668420400187 0.0631650979078727 1.0937906218895517 86 76 74
-0.0615139593548093 0.0621119729484547 1.2078262828598680 13 13 11
-0.0267623989699090 0.1441872941341296 1.2362286629869010 52 52 44
-0.2106722789097998 0.1291956595085559 1.2243024109690528 77 70 51
-0.2070366538358815 -0.0964051312500988 1.1900277202049663 61 62 44
0.0002014866290714 0.0107973110285066 1.1026472547761328 128 94 57
-0.0770850245230108 0.0624753852077294 1.2198885141550480 147 158 124
-0.2416781641692594 -0.0180202504771549 1.2571826079410475 70 73 64
0.0002740859561499 -0.1822775476314015 1.0021211242628967 98 111 145
0.6034486673559031 0.3874284649918761 0.9146909275641377 134 165 159
-0.3253236632997106 0.0248803952974155 1.5180722646374216 187 186 168
0.0555363048602417 0.0063817049259378 -0.0358322532471203 0 255 0
0.0521569736934299 0.0056082758037815 -0.0359536589638722 0 255 0
0.0511312339448939 0.0061297197951540 -0.0358342166308637 0 255 0
0.0507047487763466 0.0064152473904833 -0.0339545489546441 0 255 0
0.0395298689975396 0.0062297510546313 -0.0355703222509384 0 255 0
-0.0031921688433124 -0.0055996577923301 -0.0388689565387711 0 255 0
-0.0268903218841021 -0.0134219200470024 -0.0448787366425081 0 255 0
-0.0473023551901761 -0.0142228757046746 -0.0512156826955977 0 255 0
-0.0744270535711432 -0.0210158646265932 -0.0505197439056960 0 255 0
-0.1075647169284999 -0.0304677165654003 -0.0448838781849876 0 255 0
-0.1517658604553478 -0.0388733205621035 -0.0482379508343627 0 255 0
-0.1921300414625515 -0.0458750588958145 -0.0413024118147468 0 255 0
-0.2301015983952220 -0.0608248038555126 -0.0242044245329278 0 255 0
-0.2678929933939015 -0.0795224864734831 -0.0103036842694713 0 255 0
-0.3018605429999272 -0.0948914997523040 0.0018824488619596 0 255 0
-0.3283164283132593 -0.1147991619641653 0.0130364745992057 0 255 0
-0.3561969740931357 -0.1291505670510268 0.0289600969864685 0 255 0
-0.3912112304610721 -0.1438882815810548 0.0493408861164271 0 255 0
-0.4217843706181295 -0.1577869614739225 0.0639005137483280 0 255 0
-0.4605167004490664 -0.1677015428910766 0.0933761632006158 0 255 0
-0.4957053516639933 -0.1736614670440877 0.1178036119590110 0 255 0
