ply
format ascii 1.0
element vertex 701
property double x
property double y
property double z
property uchar red
property uchar green
property uchar blue
end_header
-0.0771858558444517 0.1978576212273957 1.1752146051463446 129 109 98
0.1434894802012535 0.2860194022440477 1.1589855242486826 99 86 78
0.1435170204097629 0.3011091288237983 1.1753792641775158 138 127 123
-0.0013835671873010 -0.0785974878998518 1.0612784526084120 140 112 101
0.0176710294807516 -0.0848703401874132 1.0506189277267719 94 85 80
0.2313131818493823 0.1276673632142382 1.1462961339782767 52 36 37
-0.0407410294907434 0.1568793930900072 1.0887926093814586 176 161 142
0.0487270935964864 0.2905564750947698 1.1499245514128114 66 57 52
0.1642649262777889 0.1414060660374599 1.0870225380686269 117 83 74
0.1062825612169547 0.1761033527584749 1.0804580430473827 131 106 86
-0.0618892199677456 0.2068252619598648 1.1342759395915529 168 157 153
-0.0613040569039843 -0.1418341675974626 1.0352219222479606 154 142 128
0.0088439667536899 0.2283551614564338 1.1022961485757818 111 96 93
0.1288673608919015 -0.0968959812289868 1.0564631437721135 39 35 32
0.2264016757521369 0.1708154635047933 1.1462684780523751 128 81 89
0.1030549586649085 0.2935418674484654 1.1547261171868874 189 183 161
-0.0081265429748441 -0.0823333327942742 1.0669593318618691 86 63 45
0.1837933201317387 0.1856935060177271 1.1099155773068459 194 155 148
0.1101143712781121 -0.0707597108240919 1.0688181745522147 58 42 27
0.1787134437243184 0.2233927655298682 1.1306065442446420 142 108 98
0.0311728141054630 0.0454876268038852 1.0465066891219792 156 132 106
-0.1154169627757953 0.0674303964063445 1.1414684945970819 114 99 94
-0.4174017805007258 0.3235089812032378 1.1807018376850424 119 68 75
0.0484008421591051 0.0811604877707710 1.0602449031354457 127 90 81
-0.0419974953354474 0.1151429439722283 1.0868451876617706 120 109 103
0.2698470653307692 0.1100650769809915 1.1899760286065448 113 101 105
0.1731470430690527 0.3602304938771915 1.0599257257927848 160 156 147
0.1552387801349814 -0.1252355051899710 1.0407922121956787 34 35 29
0.1353499861521686 -0.1144206323023259 1.0338139310232894 33 27 27
0.0811138774429380 -0.0989056081451260 1.0288664912928818 133 119 84
0.0034155784055405 0.1097028485040796 1.0712256265014208 181 147 135
-0.0620852845390094 -0.1072246318950915 1.1195195783138125 142 121 100
0.0286917344722791 -0.0719378076285684 1.0561441582734641 135 130 111
0.0521559521926609 -0.0740797779616751 1.0594840625947959 26 23 18
0.0716508442327611 -0.0731234821733185 1.0739243484612768 74 64 65
0.0577662331135164 -0.0687368789195088 1.0621538544300768 147 140 122
0.1159759225801284 -0.0725426782409921 1.0704103758172838 125 108 98
-0.0121097622761544 -0.0550094629464695 1.0836136770569111 86 68 44
0.1590131419688462 -0.0631676070653464 1.1040374694127746 33 29 30
-0.0140916645880063 -0.0802849760220563 1.0661865744969188 157 121 95
0.0382698014840761 -0.0702906123079736 1.0571567460405125 41 41 33
-0.0608729993669699 0.1497908483263922 1.1019509211304654 210 176 148
0.4637891263906213 0.1674842664308727 1.5436756630471640 86 39 47
0.6905222382702272 0.1574652865055897 1.5326419736902281 114 54 53
-0.3461711322174029 -0.0666620368900576 1.8438508571014880 72 96 96
0.0653931661975811 -0.0608249343567250 1.0665246040801304 36 33 26
0.1210190342271766 0.1749839957297075 1.0823400164513766 137 103 66
0.1441926331658757 0.1742769963239308 1.0908261912344288 222 180 155
0.0954130764518625 -0.0540285085055857 1.0746406110029438 29 28 26
-0.7047837077614723 0.0211430769219853 1.7454792535269565 50 89 84
0.0058109969370319 0.2148121220387202 1.0985896704258364 59 41 37
0.1086792505966762 -0.0371360405649637 1.0798985238036354 55 50 46
0.1964316091198717 -0.0384575433147060 1.1306536154874334 49 34 31
0.0362094307221064 -0.0093962226198405 1.0597290484473649 118 101 93
0.1803602287033027 -0.0139963343841995 1.1026164735127331 38 28 29
-0.0462303032562428 0.0205254240267209 1.0752968198129613 179 143 119
0.1881485128546831 0.2379848800061332 1.1543982689342414 181 150 103
0.2223611536023749 0.0039667663249885 1.1329229874850495 50 35 38
0.1362520842533942 -0.1474318730963618 1.0068094699978813 169 155 146
0.0344045411293114 0.2684669346792848 1.1311004947691237 126 79 61
0.0745091383981972 -0.1131666747973842 1.0046735558972963 53 48 45
0.0260493352401083 0.2795349069414958 1.1367625015666818 202 171 153
0.1376373542966686 0.2955494761604321 1.1684193649239187 163 154 147
0.0388638727589618 -0.0794550160948615 1.0521880550853315 23 29 29
-0.0833671077156151 0.1475412183570041 1.1203009367901702 187 159 135
0.1791742047271629 0.0674136474481725 1.1046250080256843 15 15 17
0.0810529248263749 0.3414728721314469 1.1643415546643801 122 51 69
0.1833146861623880 -0.0648711384663972 1.1296623111537907 46 41 47
0.0706029692253164 -0.0491203631368075 1.0794672295332270 139 118 91
-0.0938716579416320 0.1924519744328884 1.1464922942218860 210 179 161
0.1644714947483606 -0.0453406526504708 1.1011295586000480 45 36 39
0.1949376150255513 0.1641252144528971 1.1115850523711190 95 65 55
-0.1256683695040755 -0.0172927572649173 1.1797811304581289 187 152 132
0.0382582734407499 -0.2350342392282971 1.2527195592049112 144 123 118
0.1713456042727920 -0.0154872277746123 1.1067083014539230 130 103 86
0.0089982200376459 0.1728747250850460 1.0805598586300582 43 57 58
0.5157895361740568 0.2133071120819489 1.4479578894329121 120 77 60
0.1224321885906738 0.3416941995633820 1.1474022411314129 50 19 27
-0.2196608254309013 0.3838079964165764 1.0563998818871683 104 74 76
-0.0770765544252325 0.3841246942912921 1.0652980900121047 134 119 122
-0.1137684884553523 0.3905884588993452 1.0474281030891808 76 47 51
0.0594744628522261 -0.1176597127707248 0.9989265809149631 46 36 35
-0.2656071619105234 0.3879527377297518 1.0445029680864311 106 70 72
-0.1509025602651444 0.0971850399799950 1.1962540521508664 184 162 148
-0.0881231311283935 0.3875778312284355 1.0530440005172392 131 119 129
0.0035518933890725 -0.2467765124695057 1.2510735625533214 150 144 130
0.2761061545327679 0.1388642988050032 1.2377952197235351 56 52 53
-0.5105410251565163 0.3940040515522912 1.0318486137587881 147 131 134
0.2157260889721806 0.3522179680989995 1.0661302774816421 93 42 57
0.5066694745779595 0.2514425771634514 1.3711863594709173 120 53 47
0.0142751559936621 -0.1457790451854659 1.0096854240894093 128 119 150
-0.3113732641187335 0.2452412190833995 1.3144891670469649 86 25 33
0.0040575188024691 0.2542924646352345 1.0865337831415069 173 149 137
0.2026682226027249 -0.1357434115634472 1.0901988059618644 51 30 25
-0.6675711562845935 0.0637313568905070 1.7588989755214466 23 37 37
0.1416778602681884 0.2266635885538428 1.1059959615662969 88 62 45
0.1545350308027702 0.0587275171667713 1.0706783808449536 101 85 59
0.1810869707380836 0.0338689264221706 1.0830299426168710 132 100 111
0.7444553561204400 -0.1375513822319659 2.2957583884691708 182 137 158
-0.0734287901399192 0.1660986157924033 1.1155788108498588 215 181 156
-0.0913497720347940 0.3893279840930643 1.0439522550018299 89 78 82
0.4660433317788372 0.1582619102773601 1.5620604785858325 121 84 78
-0.0199750612541067 0.1798430850616613 1.0861457369479233 84 77 67
0.0933812006159822 0.1634601553802143 1.0686857910669691 168 124 89
0.7749615965394704 -0.3123650097321823 2.5912935127163497 168 141 160
-0.2669688097362371 0.2671842393313451 1.3092195179987740 145 67 83
-0.0628006240609275 0.2219100644607607 1.1367329877025121 151 141 132
-0.0440251966910405 0.2258603370785856 1.1290199837154702 181 160 143
0.0488114343124193 -0.0559099789825102 1.0685322368246013 59 41 31
0.2144542695040403 -0.0163801529910117 1.1217437952167211 68 40 36
-0.0116203704857335 0.0117774220960070 1.0595172749861606 135 116 101
0.0639445587955022 0.0640533258388028 1.0524678933439797 109 52 32
-0.0199264550870394 0.1012080459341437 1.0771359391766770 130 115 110
-0.0819993466535338 0.1241703832379004 1.1060885964956115 216 197 182
-0.2654504289169481 0.3289143945067569 1.1703497078009784 70 77 69
-0.3456788694179098 0.3705986146387301 1.0772905937507755 101 30 48
0.1052721038803081 0.3362716145306952 1.1801030783215489 84 64 66
0.0366995558277129 -0.0718278434074154 1.0654236413003191 33 36 29
-0.0590792060258445 0.0896996212769699 1.0987040197452598 176 149 142
0.2374019294334085 0.0983121013198038 1.1576731471060409 39 27 27
0.0195848447544679 0.0361894357324059 1.0471015760343074 107 87 80
0.0361970082198993 -0.1441386261275912 1.0029433754214758 159 143 154
-0.3208720220336821 0.1638848971827307 1.5225503314585820 96 55 63
-0.0225722102306376 -0.0420648000766702 1.0821386831252586 181 157 129
-0.1905006716146580 0.2985232486886592 1.2380295570020035 130 107 101
0.1940506034611732 -0.0658730129322626 1.1447885664639290 80 66 89
-0.0154867991871934 0.3219316760945795 1.1944467045590441 51 21 23
-0.4115468181372990 0.3576417078518395 1.1039118584591479 149 107 121
-0.5123301469655990 0.4127107324711169 0.9956557466001434 142 117 123
-0.1475387071890437 0.3266820717494258 1.1687624968126951 77 62 57
-0.5022114873489752 0.4317350736423373 0.9553393518960070 84 49 55
0.0193789813002573 -0.0701615421482506 1.0654167715040945 84 68 52
-0.9931441886212070 0.1709254399849650 1.5206353666647998 106 109 116
-0.9165014710253389 0.2064856631329422 1.4290744851112569 166 142 164
0.3918339029222536 0.1905049412884142 1.4889000203642857 117 82 63
0.7213509172835630 0.2197319458755145 1.4344143391711537 170 111 71
0.0931393507155221 0.2662636847900129 1.1246739067326590 163 159 160
-0.8831242642450322 0.2155048101200926 1.4242021317350053 116 39 73
-0.4705400634421743 0.4043418648881272 1.0068122991470916 66 61 57
-0.3556009086796700 0.3449247193471324 1.1126610331918361 99 28 42
-0.4263674361066364 0.3770019872869811 1.0725338259078772 136 46 72
-0.4397861410961950 0.4052943337050929 1.0120848582617932 118 122 121
-0.8988026568941917 0.1936396661661349 1.4712034944983421 123 47 77
-0.7896133156126588 0.2293464427970868 1.3674942906645091 145 130 127
-0.5467018533548244 0.3897567131198334 1.0680494149142983 143 124 117
-0.5460882395594037 0.4083655072661257 1.0007540758311340 96 29 46
0.3469805856048663 -0.1901510474615113 2.4385727601353167 174 124 91
0.1563875632424476 0.0603706993325056 1.0742528998051613 92 70 56
0.1245648799544134 0.1498984069870309 1.0693553645081910 77 64 56
0.1796823165067711 -0.1445401876584602 1.0408718641596335 100 86 73
-0.0858739223951485 0.0349091408563669 1.0978006881169176 198 176 162
0.1264877927294406 0.1476304030252844 1.0688400876730444 100 81 75
0.1654300030361007 0.1977430975503413 1.1105120977191780 129 88 68
-0.1326164690099731 0.1798306954003747 1.1966965081262886 207 174 165
0.1682326448120841 0.0511573732286249 1.0789543721431154 59 46 53
0.2279973113481371 0.2569381994539041 1.2193571067002673 121 102 106
0.1107140574054861 -0.2362195995223576 1.2434278260646257 153 136 118
-0.0672218437799259 0.2041745184870274 1.1328334471187558 107 83 73
0.1277600820789150 -0.0901649004962043 1.0486181819808098 42 37 31
0.0954968958800550 0.2399266000467840 1.1072441163305715 62 63 55
-0.0083900484657332 0.3728206772634757 1.0989060658685887 169 136 147
-0.8527720830938872 0.0706205293986199 1.6143850572852925 42 73 75
0.0291570028276847 0.3284308376906542 1.1969395450938241 170 137 130
0.0621919025391651 0.3224314139593338 1.1757516361091798 155 132 126
0.1336006181324464 0.3257739391260034 1.2035558477431836 87 70 60
-0.0287618231553633 0.1683758469921337 1.0872713741362323 128 111 103
0.2842643176598610 0.1450779018669318 1.2437669890944523 25 21 22
0.0248945625567354 -0.0842247260326842 1.0506035575191650 32 25 17
0.1862658371219411 -0.1015812763322299 1.1471089024470020 106 75 55
0.1523141926787204 0.2552604069924712 1.1367706947529774 178 174 171
0.2601914386215310 0.0065670080821669 1.2076026008380703 53 53 63
0.1923244555695943 -0.0189631765726231 1.1153150975862689 74 49 52
0.1116265504381122 0.0314586360853940 1.0502175523761128 168 141 124
-0.0818243398635489 0.0900321344541314 1.1133171594938527 160 146 137
0.2171767542297715 0.0955429181227381 1.1238981988177399 97 86 116
0.0525107227093769 0.0691095523804588 1.0579333988867263 153 104 71
0.0376174785143813 0.1324342087798581 1.0683824936185227 100 72 51
0.0073706875443961 0.1884654545384722 1.0817185004242644 199 191 189
-0.4644201914078557 0.4200308060178725 0.9801754741038800 59 57 58
-0.5179559242530801 0.4405900836386283 0.9350451113676516 72 51 56
0.6320112490004791 0.2619306752444359 1.3615564637980655 140 73 54
0.0946847315319568 0.3295784301624323 1.1873650931012958 118 89 85
0.1749551879667310 -0.2670989878717960 1.2801279851243164 138 127 131
0.0406312927662149 0.3279757966177729 1.1797226387931978 93 59 57
-0.0483483081479621 -0.2386659033285130 1.2204906968517635 52 48 37
0.3888333823734060 -0.1783664504339735 2.2541702912614157 112 75 59
0.7634403820240183 -0.3030547496555171 2.5783898583019842 121 65 92
0.7978378841225502 -0.2203416935494651 2.4340455726362196 170 118 140
0.2502400279721086 0.0115058089504735 1.1701868955650374 123 113 138
-0.3753489387071633 0.1275827748648012 1.5847548645640004 180 127 147
0.6255166453728279 -0.1376045422023640 2.2086513837123825 129 115 114
0.7765877578454927 -0.1092736282853629 2.2012552824684239 187 140 158
-0.0115117776241078 0.3059456382691277 1.1817727695867892 93 75 73
0.4390119790125929 0.2805721744332636 1.3078624585993677 82 34 24
-0.0739095341075864 0.3796425013248689 1.0674398097943085 163 127 139
0.0768239220847799 -0.2369349982000641 1.2544310674111445 100 79 62
0.8504303232724417 -0.3251690820874161 2.6305361773926967 152 129 149
0.0231349846574883 0.1777203839195764 1.0736284696124880 85 76 71
-0.0158383088903078 0.2454148203337433 1.1250929333794455 117 85 64
-0.0699852435783860 -0.2523786220729265 1.2534967523963940 79 66 57
0.1377346166290442 -0.1348406221914057 1.0146325842549386 130 104 107
0.0832641503203040 -0.1078533009769287 1.0179193412079832 107 97 85
0.3691359032597973 -0.2144741775954299 2.3781749676518151 80 46 34
0.5959305313982318 -0.2450523966376650 2.4592227761800958 50 32 32
0.2490714033045032 -0.1415100875354215 2.2090062819120186 87 93 93
0.3687049631123558 -0.1195724163673487 2.1560838317121194 173 152 147
-0.5866016913152263 0.1345326531731486 1.5790919955180109 79 89 90
0.0232859811412636 -0.2553136424464177 1.2742019983674691 147 111 115
0.2391001439241366 -0.0628232123623620 1.2252889973961218 124 101 107
0.6493355230539886 -0.1542605039617364 2.2733896249783556 77 67 78
0.0659157753212834 -0.2213161747633628 1.2375065114581512 143 124 118
0.1210936794793365 -0.1805534866521455 1.1798755100379259 153 140 124
0.0777939400363234 0.2804594248675616 1.1305396207729703 237 209 197
0.5838704059217230 0.2476198648322210 1.3806425623265888 124 64 63
0.7719509221754990 -0.2567202271414797 2.4728682239907216 137 111 124
0.0131182544250624 -0.2734182659575468 1.2913566927806917 143 131 143
0.7678645313631756 -0.2406034194938602 2.4745106142673312 111 49 64
0.3278246479177369 -0.1487206190270585 2.2212193054199800 158 124 114
-0.0670271179705347 0.1246399412558047 1.0997875221923512 202 171 150
0.0040582030801902 -0.0028489767349954 1.0591830350293805 48 36 24
-0.1361132698871932 0.0213521490827172 1.1735000043677140 61 82 75
-0.7704976175679408 0.1236424526247735 1.6267882292380598 162 127 151
-0.7331929825969777 0.1295245030246288 1.6066560431060544 132 84 110
0.6919269333965289 -0.0886216915488661 2.0998704802122878 150 135 138
-0.0555253690003820 0.1259846607830874 1.0946389033045734 119 94 87
-0.3786273511937470 0.1276112526659744 1.5904807125965750 153 99 115
-0.9137300985891047 0.2243469533010679 1.3970599553460350 163 133 157
0.0251863861826709 -0.0325145893554036 1.0653022185727115 122 100 86
-0.3647848498798917 0.2292198932670676 1.4138604072861338 115 116 111
0.1621754872007869 0.1179656701096085 1.0844766212518597 149 131 117
-0.1024391306471424 0.1750948390067117 1.1475833516872829 206 174 153
0.1223503412975221 0.1320322789730077 1.0682261376669377 157 144 135
-0.0655368677549777 0.1728685205729062 1.1211980139328814 157 131 108
0.0890707171386523 -0.0341767968076317 1.0697273078526954 102 92 83
-0.0976103658788888 0.0021961138331224 1.1221605480392223 138 91 81
0.0652805894614053 0.1826326945567569 1.0775019433695772 250 237 229
0.3866155946706635 0.1979459063390100 1.4756578622376122 106 81 59
-0.7594763396251022 0.1194726935828590 1.6432801158110786 132 44 84
-0.6670286897924858 0.1092001463056092 1.6713478991092701 115 29 76
0.5845509036880394 -0.0861767363379021 2.0536569344708777 159 128 97
-0.6285134338551284 0.1179084529651076 1.6122157668464663 152 109 137
0.6904484328249511 0.2393648944151760 1.4164467256458810 154 73 80
0.5763521415815955 0.2711053669160283 1.3255973680474820 111 117 105
0.0843386176078581 0.0515639978939006 1.0517135119525081 52 33 29
0.2087318161310673 0.0539035107395899 1.1336891976991241 20 20 22
0.2492340654677047 0.1192140270629173 1.1630390426188160 124 93 91
0.2551196666574368 -0.1955996552502218 2.3480951858421553 106 88 78
0.1635160705760447 0.2640420763171886 1.1550413076598303 194 154 118
0.2995871170419435 0.3422690615174336 1.1769783593920873 134 128 130
-0.0919457541098684 -0.2117434916201440 1.1406781921477991 28 29 34
0.2069337119087027 -0.1003049214009453 1.2256301867745305 116 97 117
-0.6590271590789124 0.3306979814390488 1.1696556531800213 56 38 38
-0.1283793761577497 0.2454421881213378 1.2254682023719174 99 59 60
0.0031253530147624 0.2088870387679050 1.0987361928167370 105 95 96
0.2199371939772499 0.2304342029278413 1.1799860467838872 123 109 108
0.8796870318429261 -0.2524944168891444 2.4743818404831566 152 140 154
-0.0694277660797331 -0.0054589283914233 1.0889397186488503 183 164 147
-0.1122412101026052 0.4010522501420459 1.0262020616324350 94 36 58
0.2127400468173084 -0.1196513379832115 1.2394734191850783 27 21 21
0.4068199808246486 -0.0993465967936803 2.1189058376272092 146 144 147
-0.9060224013688289 0.1666200593137317 1.5341283488513122 123 49 86
-0.9448076552849028 0.2148715220685856 1.4125662502434599 141 65 101
0.0870810393119210 0.1419853210774442 1.0695486081161316 45 39 25
0.2664544376440316 0.1712681121175477 1.2325251331486813 32 27 31
-0.1336158859407656 0.3942391111977809 1.0367411263034687 90 39 46
-0.4892547148577138 0.3041777355756505 1.2199342208002797 181 106 126
0.6344678894180749 0.2010518063290089 1.4702402234350755 122 71 70
0.1423577696098012 -0.0879670991934754 1.0731247258075989 5 5 5
-0.0985239779660588 -0.0395463384635804 1.1454905373489379 185 162 144
-0.9052023270948434 0.1122003612261715 1.6359938356731842 20 20 22
-0.1608127063731535 0.0339498443387043 1.2023592796735179 48 76 77
0.2914703116015386 0.0128569002014570 1.3338696181494951 150 131 127
-0.9441632171021231 0.1387384918564248 1.5235459926965504 31 32 37
-0.2585018485723872 0.3643389536072871 1.0801650332526813 58 17 21
-0.2207261479946040 0.2602497335239169 1.2604227374258263 104 27 43
0.1655671954789270 -0.1111666046356302 1.1284683557708726 44 20 20
0.0106131407226350 -0.0494320162426858 1.0674438238324018 131 121 111
-0.0215354849766503 0.2511217922589903 1.1374778056665249 125 93 70
0.0697255401223557 -0.1997393847604213 1.2288099124301228 74 49 29
0.0712109811964773 0.0234330544555080 1.0516727337477914 114 97 89
0.2414503117692843 0.1174341672587189 1.1552177143740860 48 38 36
-0.8838151683381239 0.2203386575601860 1.4012199396632097 116 54 79
-0.3833679398675686 0.4361378785355451 0.9504025357024599 68 58 59
0.0983523289139718 0.2229397695226045 1.1002356439743799 162 165 156
-0.0985717708112986 0.0170324834273239 1.1147734496040553 193 157 145
0.5656637209635444 -0.2663432558075903 2.4909935820122806 142 130 116
0.1910523749945421 -0.0797987263094630 1.1431035420437716 104 88 99
0.1629782735378073 -0.1798260163803640 2.2992844257519423 169 115 131
0.0076156106634681 -0.1863881545667664 1.1879668834624739 49 46 57
0.0012845321142707 -0.1766143274991183 1.1706667848648429 152 149 166
0.0853937825999065 -0.2317164446794374 1.2465595682402102 159 138 119
-0.0473998628984098 -0.1758729270159843 1.0982939328589476 116 104 118
-0.5493861302714241 0.1385791392605600 1.5812961151652267 79 76 87
-0.0506798461154003 0.0396663078434864 1.0816586806429196 201 154 136
0.0163220888848227 -0.2366239906402602 1.2457149366296827 77 66 64
0.0909802425838442 -0.2319699544715669 1.2454170889794569 105 87 67
-0.0549632464733947 -0.1827790114155114 1.1164521417614046 56 44 46
0.7004602378469389 -0.1355066749669695 2.2209603867667305 172 125 143
-0.0297127481090325 -0.1946290161483778 1.1772928033038745 37 33 34
0.0769866004419350 -0.2065894225826649 1.2253024738260181 155 135 108
0.2424468964979199 -0.0222825120848918 1.1444731758887097 89 85 86
0.0502859883178319 -0.1177287352027537 0.9834849087311306 104 84 75
0.2718140333093052 0.1058097532788376 1.1894195030931791 107 92 97
-0.0204479818951822 0.1895786575001658 1.1022612731416712 175 175 177
-0.0398146592470125 0.2665442773697981 1.1608477173738110 136 101 73
0.2622012956363289 0.1443989153171337 1.1894429269583466 129 95 94
0.6759793774525781 0.1672721326048180 1.5332996032013986 149 104 98
-0.0753477940209343 -0.2453747519350457 1.2267643211952541 147 125 111
0.2414503094437390 -0.1673223615204824 2.2761342926545671 99 61 48
-0.9138306680680087 0.2240730173372889 1.3848529937430085 155 112 131
0.0464193628086927 0.3126852824275611 1.1759273275154494 117 97 90
-0.1145545234200835 0.0885779980613412 1.1372852210765474 145 118 101
0.2654193438415151 0.0387576817915640 1.2133978875175262 108 96 96
-0.0577147055187417 -0.2561030657924729 1.2520016974518056 50 55 49
0.2614942560759497 0.0505499457425882 1.1945304613314645 115 90 85
-0.3448508977844401 0.1937481980431946 1.4660002579756268 162 102 114
0.6968506675335128 -0.1556219584329084 2.2410081177621826 160 123 131
0.7010618676496045 -0.1456332284718134 2.2356223025083874 130 66 83
-0.6412789159593998 0.1490981606277201 1.5216947139636234 65 39 52
0.1528267482427410 -0.2668871539700198 1.2824168594136223 88 78 79
0.4025853980682098 0.1732830273234635 1.5256723563609289 106 68 59
0.2874456814170477 0.1626673918598815 1.2623341717584167 116 91 94
0.1302631554873031 0.1783725470525065 1.0995301017767274 109 72 56
0.0917271863491136 0.2138958387784133 1.0952653908297418 211 174 148
0.2623602045977499 0.0157622131406380 1.2176799867827555 96 93 104
0.1941475722433874 0.2138715491969144 1.1544189362207218 111 85 68
0.0880757155172010 0.2414624668385550 1.1089699909542772 147 133 132
-0.1078507385449910 0.1710479904023675 1.1423819411972402 156 122 110
0.0027058795479332 0.2061683007666173 1.0928211156406409 156 127 129
0.1999993905196779 -0.1545243141651407 2.2377859743798454 95 62 73
0.4016197822209396 0.2041493356102955 1.4543010389313176 95 39 50
-0.0427991938344844 -0.1940554054476332 1.1663470978562012 32 27 31
0.2332313290191391 0.2562425209382993 1.2300777654138211 26 24 25
0.6298065028135464 -0.2302414624050581 2.4209995658182368 153 133 124
0.0750907773473053 -0.1298905452849305 0.9831863691056844 147 133 133
0.2470140025026912 -0.0510559532732322 1.2077664454805834 63 47 48
-0.7818998002432589 0.1373141564939726 1.6237497015775793 119 49 86
0.1742476670887911 -0.1046707100346299 1.0935482410152726 90 75 72
-0.7486347315306312 0.2100232520855278 1.4226147408571383 125 97 75
0.2504405715802122 -0.0378377509410955 1.1923503729300466 111 93 91
-0.8663386231781623 0.2173692067667723 1.4479183599129135 122 73 94
0.1559515522806836 0.0805341477882580 1.0878495038085849 121 112 105
0.1557208850192032 -0.0120867763873839 1.0879079532621945 113 109 108
0.2527381725285668 -0.0234952756469718 1.2001065874692576 51 42 43
0.2771991991038146 0.1086969771202432 1.2178193767718264 40 34 38
0.2575223708006362 0.1574104471114150 1.1984765624044962 21 19 20
0.3214198298938845 0.1926992606452461 1.4858351923453572 115 84 81
-0.0731538094497333 0.2641310726414945 1.1817021219864305 188 162 149
0.0075562100138267 0.2349988690009641 1.1069661623468126 203 184 170
0.2318044778798774 0.2124117006221397 1.1821327176900569 36 27 32
0.5527459194159299 0.2539370979641947 1.3684827312457348 112 49 40
-0.0890978366621892 -0.1861386508237400 1.0678919946785494 79 67 67
0.4467868305244158 0.1722792677252956 1.5414600806649355 122 79 60
0.1756838994611856 0.2963830973580939 1.2142928088975451 49 43 31
-0.4615858811026937 0.4451029136812403 0.9260924103878844 44 45 37
0.4922776692057092 -0.2583382507053201 2.4517040374352526 112 99 91
-0.7877972311150909 0.0468978081900832 1.6758727430452849 63 102 109
-0.9703923136886282 0.1062290233844353 1.5482411965398812 74 99 96
0.7195914414536967 -0.1320467296483421 2.2271292450638769 181 135 161
0.0633632928808932 0.0945268849782009 1.0628050879228370 52 39 30
0.1932228215039212 0.0875218505944852 1.1129771064463445 179 149 123
-0.5059364536494073 0.1418646799984347 1.5346675565615795 125 125 133
-0.8564053514250288 0.2364485190108726 1.3586394936258808 144 130 129
0.2459778348333987 0.1443206412840428 1.1729100621594348 64 49 42
0.2617556738185681 0.3050644628129388 1.2564849404082938 132 115 108
0.2908331303948777 0.1477495936146463 1.3101858680953320 100 84 84
-0.9976812485584985 0.1845966277981147 1.4431583012712370 113 123 132
-0.0170965585816988 0.2674093102264374 1.1490159650480840 127 109 95
-0.0252244727240611 -0.2105872586415221 1.2102866072153913 48 42 44
0.2422324153563478 0.0002922823009251 1.1466268152392274 101 68 79
-0.0075092905854788 0.1858876190288609 1.0863646422750746 157 157 159
-0.0396102885875159 0.1348255521617603 1.0814680645035504 120 112 101
0.0627494837070383 -0.2560507966453267 1.2683818953576751 155 138 130
-0.0928087525061836 -0.2489411634598523 1.2325276229720534 37 66 62
-0.0605035096323010 -0.2219800188064227 1.1993346221106829 114 109 113
-0.0557406562005526 -0.2486835685550723 1.2421827619249108 101 109 96
0.0087658452207951 -0.2613796260401254 1.2802483849046733 78 59 52
0.2533294858529253 0.0008774826670871 1.1782328984718944 114 97 107
-0.0309487681463765 -0.2383540457009966 1.2384421791643505 86 95 102
0.0756600541749547 -0.2228414284983800 1.2325249023399705 75 53 32
0.0796301660061709 -0.2216154147605565 1.2359875545994101 148 129 115
0.0452011968918123 -0.2227836384064106 1.2429144585999574 68 57 53
-0.0131705830556802 -0.1997809460911792 1.1999980135966588 93 72 71
0.0900095460875113 -0.2217248799992142 1.2381619538850097 149 131 107
0.0241722651657116 -0.2080271084426611 1.2197878850522084 92 70 72
0.0553077465739321 -0.2132762427497976 1.2285384747573576 130 109 92
0.0128984441791467 -0.1997206081563170 1.1975242604103746 97 98 93
0.0510909256657925 -0.2012496970779298 1.2202918208408060 135 120 113
0.0889774598876261 -0.2081722948529019 1.2282064877014705 87 72 43
0.0590463553160861 -0.2067033636137875 1.2297076176571786 140 120 113
0.0459130881622121 -0.2018346448779687 1.2221267501965860 53 40 32
0.2431653811500710 -0.1984122446084396 1.1523453135853643 127 110 116
-0.0228839783160066 -0.1103445209408992 1.0363699454226656 138 95 88
-0.0057747527332485 -0.1270589376331245 0.9968712887790671 93 84 75
0.2582319789690681 0.0296412768162643 1.2124255172991683 100 91 94
0.1606295747670503 0.1641715591512248 1.0914846129594313 132 117 114
-0.0703706823261398 0.2313461963080969 1.1443508113015168 115 101 92
0.1944710849002847 -0.0716814180266089 1.1470086160650350 119 104 123
-0.3906443162672625 0.3242006292380510 1.1699543550684297 83 74 57
-0.3516263117136929 0.3284054117222888 1.1721801933932843 143 128 109
0.1636586783231423 0.2406884236681806 1.1354908290099888 80 70 71
0.2064830610813053 -0.1635528609399161 1.0534646522941904 94 67 60
0.2040739459202403 0.0448979418918381 1.1090095505008630 79 64 61
-0.3891646312696979 0.2127442730287169 1.4215887437629624 76 31 38
0.1846488204227896 -0.1228877962145504 1.0823444095070114 45 12 23
-0.4647069661286486 0.2727254184538568 1.2945111188452403 150 86 103
0.1867304079786065 -0.0849599930094784 1.1451909961902405 130 114 124
-0.2256186921382943 0.2930172339041390 1.2488672621462498 97 89 87
0.1719185184358136 -0.0742772655661609 1.1221315425743836 63 61 83
0.1077930050535286 0.2191262560300848 1.0976547831473848 158 159 154
-0.5810878388027660 0.2727862858821656 1.2942135527992067 137 143 139
0.0836946946918998 0.2554721255064091 1.1129614544987032 182 174 161
-0.0616580742228132 0.1458900433892498 1.0966727487190775 207 176 148
0.1554111304718991 0.2628940061004677 1.1484372627325092 58 40 30
0.1090971654524018 -0.2656429758191102 1.2836546222934617 67 55 69
0.2680649779686627 0.1111130202072885 1.1944613303029188 124 119 125
0.2877064891756861 0.1187964720155469 1.2561107475040689 29 28 33
-0.0833279396477497 0.1857547220870931 1.1395852490896672 153 118 98
0.2324364613417752 0.1173805578773408 1.1438844246616247 56 39 45
0.0410389832175037 -0.2829170371183526 1.3062236333693007 82 91 100
0.1903206802746182 0.1251022610767472 1.0942441994829470 152 135 128
0.1969755422133813 -0.0661776324483051 1.1476725074281322 126 110 123
0.2235148950530861 -0.0689108299447412 1.1981117651401023 129 109 111
0.2025849331141987 0.1296780627592561 1.1118272118498771 99 61 50
-0.5934874772977673 0.1250515485975929 1.6064186794265358 110 114 125
0.0312460251299675 0.1664524858336294 1.0714808429077718 66 63 46
0.2440243421196654 -0.0220141577127776 1.1663063684862887 107 105 110
0.0720767683620502 -0.2590941973019783 1.2763119697453038 138 115 99
0.2640498946008057 -0.0065328149357579 1.2372546410362262 50 47 64
-0.1163942476825524 0.0813139675173521 1.1393226242994459 219 195 171
0.2436670561416238 0.0105612063837111 1.1341138306951157 134 129 125
-0.4269827197047638 0.1658748563118624 1.5171659364618229 97 80 90
0.2259519046906192 0.0279465495697891 1.1328219678847822 76 54 56
-0.6612863733488876 0.2411577121707258 1.3593388339209678 154 114 102
0.1028164846701005 0.1990803108222713 1.0908911290627405 132 81 62
0.2712605790787808 0.0616817809594414 1.2088426638530856 56 41 46
-0.0016567694068939 -0.1075734196591917 1.0221105014875698 113 81 66
0.2332120678887772 0.1007894004023334 1.1482066022956010 122 98 114
0.0062265062168551 -0.1010830755347025 1.0291836728960897 33 19 6
-0.4345561406285888 0.2763419578054673 1.2819812227396443 148 65 83
0.2727733864452117 0.1147401046440194 1.2036538514499775 44 35 38
0.2212547089772764 0.1287051930167029 1.1278151894589696 77 53 53
0.1841618127047537 -0.0781037906546208 1.1346925421722616 104 94 93
0.5612799747419611 0.2543576646201334 1.3616220550209515 157 102 97
-0.1907309924609465 0.3738186860397822 1.0818117752627556 111 117 113
-0.1023319479225892 0.3941128987682962 1.0393968350602945 151 139 143
-0.7223343397684929 0.1109288714755167 1.6509631004718670 155 87 126
0.0350007060119833 -0.0016737511530932 1.0559102863757877 102 82 75
-0.0255968031057762 0.0441266481030697 1.0714885470481390 197 140 121
0.1511267715617187 -0.2717167034851734 1.2772030295948118 142 137 134
0.2403665013906555 -0.0476221110035397 1.1950063452859945 127 105 107
0.2526010096722975 -0.0434018766091687 1.2441449474229171 82 71 77
0.1100621909482424 -0.1856039799351059 1.1962411550484311 45 34 28
0.0998506557796287 -0.0069754350818760 1.0632612159868213 47 42 38
0.2389966618759852 -0.1929165720825862 1.1398494492108731 77 60 50
0.2213493402369052 -0.1791746172587476 1.0773118552098473 162 147 144
0.0019926315367719 0.0341881113395873 1.0576874848490887 113 81 58
-0.0087015071078250 0.0375294065193363 1.0629242360272779 177 143 105
-0.4049123516394491 0.1265608858117497 1.6141233793048233 81 59 62
-0.2132083316021288 0.4052938585520906 1.0158276014618226 91 71 64
0.2675038778603960 0.0123070031008789 1.3133945901285566 104 100 127
0.1857057171152528 -0.1451559423568361 1.0415442760638687 48 33 30
-0.4517262806957159 0.1867093752699102 1.4734658415829043 91 60 57
-0.1034510276418339 0.2003104822580014 1.1612621222894142 200 167 148
0.1116894845011095 0.1562645165577966 1.0766405441954503 101 69 46
-0.0978878402316578 0.1218344828905765 1.1235017138875019 120 100 93
0.1964673315507569 -0.1167721797828441 1.1633510844120976 38 32 36
0.0725090102827836 -0.0574700764028925 1.0725910152961424 112 100 86
0.1660627899847743 0.1726309627454939 1.0971126985634190 76 56 55
-0.4163779031702955 0.3203270383611413 1.1833243599615952 125 80 83
0.2457351769107275 0.1978626141929548 1.1909382226662804 60 46 43
-0.3535030424035855 0.3355545058591562 1.1580222129256730 108 64 55
-0.4913498780991929 0.3829660987144878 1.0703858161310342 149 104 124
0.0050999963842373 0.2810796681633568 1.1458938108374350 185 168 152
0.1718510337857253 -0.0397803364800806 1.1114177795502744 91 74 80
-0.3568413324075023 0.3683699298358978 1.0846795000815774 144 107 115
0.1709616723977980 -0.0272570347665803 1.1077906763601617 41 36 33
0.0901870376510010 0.0095585529553873 1.0511789873369191 99 94 88
-0.5817979530881052 0.1443161466161436 1.5741822923370170 171 152 148
-0.1438206997235996 0.3395852738549226 1.1534833689209296 105 96 87
-0.3053012473236338 0.3654831556532113 1.0890358199008372 122 72 84
0.1665619077735262 0.0092801296106031 1.0757520910521201 103 87 97
0.0175668149499096 0.3196693267869340 1.1823874454367413 169 146 138
0.0799741446317701 0.3015376930798748 1.1698528418051861 138 126 114
-0.0787725397874081 0.3414498750673974 1.1467833455215128 95 17 31
0.2660071277868160 0.0117627923834704 1.2493366512913719 38 35 42
-0.2642988368381233 0.3853303662954828 1.0453819933560031 127 92 90
0.0012839169363500 -0.1765452247771759 1.1619299361355619 118 109 126
0.2231181593619218 -0.1901444668360812 1.1067435409499542 173 160 143
0.0311331389185921 -0.1361117899124724 0.9718488152720584 177 149 128
0.0640046092170628 -0.1315266718405664 0.9803543361373074 146 138 149
0.0892723862714609 -0.0988654941598980 1.0283508986105510 21 19 20
0.7911803435803593 -0.3607917532082007 2.7177176481621008 158 114 141
0.0486076292663244 -0.0448097952316240 1.0646447568656834 82 60 46
0.2492250923331455 0.1171162740698498 1.1630880136881503 126 91 95
-0.0303210816577670 0.1817654218408314 1.0907153328667440 230 213 197
-0.0897530511385863 0.2409440536834429 1.1739551331973603 217 207 198
0.0595163447871303 0.1912030990764352 1.0808024958816214 172 158 145
0.1227916826699518 0.3427619612814430 1.1465780011513158 71 33 44
0.4756286092839820 0.2919774617163852 1.3039033528201731 104 40 38
-0.0956273127951548 0.0894056723418752 1.1234559120013690 255 235 207
0.0406988369846543 0.1713155181504461 1.0746653950975076 163 141 117
0.2589395149918082 0.1956026577718209 1.2179125893733911 19 17 18
0.2307025572418241 0.1479665885033527 1.1463110306173714 142 102 67
-0.0131849680150767 -0.0967731550830949 1.0577751842481360 46 28 18
-0.6498109377198665 0.3194976975850484 1.2052894446781330 120 131 127
-0.0692986882353238 0.1898121498677362 1.1411274769272335 145 119 94
0.0658065878375181 0.3213211440073427 1.1633372279172576 105 73 74
0.0548810240902475 0.0723599979721108 1.0544185901211631 178 141 125
0.0796656071424783 0.0184506757474256 1.0603040991442598 144 117 108
-0.8476262147832795 0.1255883994841874 1.6270830876971989 153 135 157
0.0797280507800234 -0.0417683572968454 1.0707912637315389 58 34 24
-0.9978932034059900 0.2388073306339758 1.3713138527852493 142 137 144
-0.0170575010226011 0.2696390629565865 1.1490975144273130 135 115 106
0.2754665079849772 -0.2631959739768746 2.4732733907107920 68 81 74
0.0452862683726083 0.1864052443534129 1.0812802444116649 186 167 153
0.0541788822410698 0.2422743854917369 1.1040686068213510 228 193 161
0.0621006401540752 0.3373925900593920 1.1919698437036055 115 41 64
-0.0557676889437145 -0.0923322989883101 1.1109462164088670 159 114 91
0.3820059960863316 -0.1609939757992356 2.2282749392573393 165 145 121
0.1590441183683926 0.0378066507436092 1.0801395574982593 38 34 33
0.5062298396213664 0.2516945872171707 1.3733478114101965 105 40 34
-0.3083184012434773 0.4225168753937212 0.9836133134924369 75 46 50
0.0841551262549719 0.2054899292787444 1.0933487713009153 255 202 181
0.0181992956500363 -0.1006102956836961 1.0505436717767382 99 67 42
0.2901609580553240 0.0980448334785928 1.2454303842698105 136 131 138
0.2808934142852205 0.0426050150721381 1.2484753421601964 58 45 65
0.2410476043072350 0.2356225138748642 1.2196313461668298 40 40 50
0.1297116403300892 0.3197350953169135 1.1940980290238405 103 87 74
0.2376983058687641 -0.2020508176370272 1.1453222180955676 100 82 68
0.1938112986009007 -0.0678580707644951 1.1417737572393751 67 63 64
0.1750028858967063 0.3499052370101071 1.1038776159794628 116 110 112
0.0222006153198606 -0.2322746588384583 1.2536812909707156 70 52 52
0.1508399131124392 0.3590315393515211 1.1040963527262189 151 103 119
0.1159944581116839 -0.2588180514866485 1.2847227204445548 71 64 71
0.0890531454253056 -0.0805568515674146 1.0589309681356427 91 90 88
0.0785372422032017 -0.1174978264954074 1.0016274889828698 109 105 94
0.1991884229672957 0.2554376560019987 1.1785084916075459 131 87 76
0.2459567795999362 0.0112728695729266 1.1509111423000054 66 54 66
0.0128385222487591 -0.0761931408127138 1.0568357053322532 42 30 30
0.2306543020968375 0.1014366034184452 1.1379100929954966 60 52 65
0.1236715224472766 0.0559851165931322 1.0590758918575691 113 90 74
0.2883687021935570 0.1333088710886192 1.2571198600547915 105 99 99
0.2431905317346227 0.1464804541846542 1.1623911189916982 108 80 76
0.0586476832170597 0.3225197488745176 1.1773709691716903 164 139 132
0.2451514673755645 0.0022384490723667 1.1531707247547129 143 124 144
0.1627608882165542 0.0513915288980647 1.0766415279928359 156 133 143
-0.0583751717138713 0.3824787911094885 1.0578016594404849 171 160 166
0.0280608060595665 0.3721368795863945 1.0854695359501887 154 142 152
0.1706262086201585 0.0729874586584559 1.0940133621360346 103 92 98
0.2873045070135859 0.0558544356329881 1.2519137418635784 111 103 116
0.3308429970694791 0.3234244065731536 1.2136199974315838 113 95 83
-0.0170434776370061 0.1705991069364139 1.0831003991488157 92 90 69
0.1082527659084719 0.1616493878806055 1.0765215696202231 163 115 79
0.2404966876779448 0.1445008168399768 1.1564707012832753 64 42 45
-0.0017794100710526 0.1754725013883948 1.0850572372684928 133 151 153
0.1434147025468404 -0.1482284254994864 1.0168851078355428 105 93 103
0.2762213742650161 0.1278646082821746 1.2179223171195412 102 74 86
0.2759958625362478 0.1417842084799150 1.2218070214164882 61 54 70
0.1290578371358408 0.1655342604651895 1.0717779027700516 192 181 163
0.1951369117517648 0.1758724586499726 1.1121764928499176 216 189 170
0.1833953841612123 0.1874860229347586 1.1106301845833932 200 158 162
-0.1929788500473853 0.3064563405353288 1.2229967711850067 131 122 113
0.2688221898552401 0.2131488868561011 1.2748718308981932 30 24 26
0.0418776713969259 -0.0361989853906187 1.0674339835049536 87 66 47
0.2203625402404998 -0.0658860475943961 1.1924211137142473 68 47 56
-0.0296552183074665 0.2965133806495932 1.1870029113720904 89 73 74
0.1792558686970194 0.2303925123335072 1.1304050832495662 163 146 138
0.0518111804743745 0.2675440795951890 1.1263040858416082 215 183 162
0.0129217965052846 -0.0145289779538919 1.0649740892604707 76 52 40
0.1883120343084926 0.2482187768691080 1.1593837829678000 109 73 47
0.1538267998229665 0.2965176351212302 1.1861476897060461 143 119 75
0.4326810536812668 0.2731249397116887 1.3148590334764438 151 89 74
0.1503388679124488 0.3466390687743227 1.1295878146120935 68 61 68
0.0018174103689142 0.3952353669740538 1.0349532658788891 129 75 101
0.5003485810461683 0.2322856550417038 1.4018520220827733 134 75 77
0.5145810333260189 0.2684496336474165 1.3315279617451352 171 129 107
0.5238159624596352 0.2788433389499256 1.3117131693295319 174 130 101
0.5460981110834249 0.2818576219201374 1.2988206968916476 88 68 67
0.2788458822777770 0.0535171772711442 1.2286915326180576 36 30 32
0.2004214258578542 0.0042529795814101 1.1033231185827335 115 95 107
-0.0042897356281031 -0.1477415896743798 1.0694151925723800 180 165 172
-0.0183797027548796 0.0800003980969990 1.0775028308447339 51 46 43
0.2626823641959585 0.0282240216298606 1.2258898217343848 31 29 30
0.1800244339621594 -0.1343352261041486 1.0532684826349161 34 18 19
0.2447906058575096 0.1409483458034722 1.1745139179909634 29 25 22
-0.1941723396542011 0.2845749197568067 1.2770385362105510 77 5 16
0.1863176189715352 0.1353854667204255 1.0943000300527395 116 74 76
0.0768907575182175 0.2195559273994724 1.1010358738546246 115 62 46
0.2699175172503612 0.1411652316826829 1.2098752157211887 17 13 14
0.2308258620792411 0.1954673584475227 1.1615452356063196 147 95 73
0.5838510222040523 0.2041898221402803 1.4610680890694034 82 31 38
0.1888663283088350 -0.1630185240898039 1.0490703289031467 163 136 127
0.6793683251337208 0.2273528931198390 1.4187162900213657 96 20 30
0.0893640818695176 0.3587363497795339 1.1089126105616869 161 75 100
0.4844932099472626 0.2766685778339200 1.3050216208103329 157 128 114
0.5965097262750901 0.2419217220972618 1.3908690074815122 70 10 18
-0.3839202168815460 0.3665207853605064 1.0833531094765261 153 126 135
0.1149915638142682 0.0502051073467902 1.0600373751149919 224 198 183
0.1184414073335160 0.3571252847299610 1.1088999027272575 78 22 33
-0.0655097996448020 -0.0487925543027203 1.1275542097102011 187 154 135
0.0015749743920632 -0.1820204374263921 1.1734162112926987 68 54 67
0.2251724688712912 -0.0838156043583395 1.2470326668077696 111 99 119
0.0239848476189687 0.2246953798041953 1.1041089165759914 107 80 69
-0.1023898890304419 -0.2277171431893991 1.1913143126599990 49 46 55
-0.0270629133763613 -0.1883059452229096 1.1770995952645311 94 85 90
0.0006481888550964 -0.1929263620859023 1.1917984436617568 76 69 76
-0.0075660871676507 -0.2170164455560258 1.2238489219843540 23 24 26
-0.0802587215214134 -0.2424982471660767 1.2290733560290672 67 53 44
-0.0010952083464388 -0.2087445810442096 1.2073054973599668 75 74 70
0.0349026119825497 -0.2079844389348733 1.2238838414840405 74 58 68
0.0022208083470791 -0.1882608463160910 1.1870760215525731 41 34 50
0.1293270502196502 -0.1258041735790478 2.1786073169140598 102 89 80
0.0374886915239805 -0.0592256413195419 1.0668760778566557 38 40 19
0.4201342135886093 -0.0309668882705320 1.9774367812263480 167 127 136
-0.0369158193978909 0.1216921946181871 1.0814892745321898 43 42 38
0.1703814962544821 0.0802224768429765 1.0812868906155451 93 88 85
0.1070203488164062 0.3394395796090710 1.1678357371928487 135 114 119
-0.2388704414511485 0.2625267522738653 1.3392801789448570 143 127 114
0.4699100855654023 0.1879480487757677 1.4962382920922885 99 40 46
-0.0337408584008065 0.3151267551078982 1.2094077379847892 158 140 130
0.6586112045255528 0.1975940878949466 1.4725486403437615 160 106 120
-0.3591508000352303 0.2551757212941225 1.3302778057812423 179 94 115
0.2338841191758456 0.0446074394370421 1.1471213358298527 86 82 109
-0.0064590303511524 0.1088605969934360 1.0772620233146082 101 85 70
0.0250272242581544 -0.2002992481476707 1.2096954060612097 154 136 136
0.2531133202788680 0.0664759646010261 1.1818230172375535 85 82 99
0.0940696446544741 -0.1063114649277865 1.0234892526275445 70 67 60
0.6433117695340375 -0.3341881392893243 2.7817287738636232 108 114 112
-0.2979369198030287 0.2833044178359007 1.2691950342972020 113 84 89
0.2740763229854358 0.2004569558743294 1.2582642243211133 105 85 86
-0.0549752646151626 0.2807934544826456 1.1919376615734274 136 100 88
0.0940737427916815 0.2606189588964657 1.1202764688067319 98 88 87
0.1722925867372462 0.2702862246742394 1.1609922620897071 164 141 127
0.2142180487268344 -0.0436007675739029 1.1537478933164200 90 70 69
0.1321579504507107 -0.2755223040085654 1.2948526943611887 48 79 84
0.1762041530267119 0.1840455792636636 1.1127075411074807 103 63 61
0.1042066297651552 -0.2654902454562008 1.2801000385535362 134 122 122
-0.0403352454336797 0.2494974907484379 1.1452750808999679 162 144 124
-0.0057528788382271 -0.2174517048582844 1.2189553720900148 25 25 25
0.2596480433227124 0.1833140762191752 1.2071867324633379 96 81 86
0.2523168529308812 0.1941066669128387 1.2002217832045234 113 90 98
0.0069180140752826 -0.1972797386366523 1.1904842975294478 43 42 40
0.0327189879680652 -0.2048197284162859 1.2174013150814287 159 143 143
0.2450652164009472 -0.2170134929860679 1.1648708533977881 166 151 158
-0.0256873737695657 -0.1419098115832572 0.9887123657339079 178 151 144
-0.7166708846302712 0.2399964081871790 1.3583754868647546 175 155 146
-0.7220963249862572 0.2444066892095660 1.3463678554002825 126 98 86
0.1653482950716328 -0.1239709766689546 2.1749281711283870 144 138 140
0.1482910189636542 -0.0595018092187217 1.0986529221883323 50 37 44
0.1509996926152691 -0.0497263371239575 1.0988645109183315 63 48 53
0.0963460514758419 -0.0363466363544069 1.0721069486832049 40 38 39
0.1356384867789085 0.2859677481735137 1.1598980622188946 150 129 124
-0.7414876386518374 0.1357267147274138 1.5938888206320880 139 53 98
0.2217084997866117 0.2948456457919176 1.2672116538793643 43 39 40
-0.7814151092945727 0.1506634427442798 1.5748389321786869 105 71 96
0.1765201994689433 -0.0324794405000123 1.1125674927982674 103 84 90
0.4585127003588857 0.2796807134492838 1.3368101162900465 146 116 118
0.6788331140337888 -0.0755281084826172 1.9405511599781708 95 103 92
-0.1028515175897037 -0.1868470179242063 1.0738069356433533 162 152 143
-0.1077327602371319 0.0995638097004356 1.1292614143558923 146 121 99
-0.5816663698378051 0.2248959731092454 1.3906224938236149 128 83 64
-0.0249845798713152 -0.1534764152031579 1.0443595175900005 83 66 82
0.2272529546370212 0.0423301995471505 1.1334258790040952 29 25 26
0.2673775105563840 0.0524619241495073 1.2074840610090929 48 38 36
-0.3513400709449832 0.2259113156656609 1.3890649154551986 141 117 115
0.0736927444816059 -0.0470103128162016 1.0679034889479266 139 122 104
0.3341099180964392 -0.1334648073706022 2.1869929928569043 132 70 55
0.0532529611353253 -0.0128133983683194 1.0595078186505020 103 92 90
-0.6850708102653895 0.1736252589916564 1.4976359370744137 154 136 136
0.0213495063778753 0.0294901397558304 1.0478056454784330 86 69 51
0.1911969376303723 0.0012073688161490 1.0960717786796963 72 53 59
0.5245488613315449 -0.0582459198174979 1.9797575168547907 150 87 95
-0.3630317388743446 0.3296611590879925 1.1664746154203793 123 117 103
-0.1181423199052383 0.1815140187210744 1.1641227212051162 212 180 165
-0.0833652254033146 0.2206171475988332 1.1605044633149726 209 187 163
0.4129006399417278 0.2565173572174664 1.3515475015691045 89 24 30
0.1144330484865301 0.3708245425303636 1.0786690749905816 179 146 155
-0.0451345065642614 -0.1521052444764014 1.0032224724476309 177 171 181
0.1887042949686691 0.3545871220376097 1.1097858980363651 55 43 43
-0.2893488159781674 0.4538310208893711 0.9147391398949315 136 130 130
-0.4169319495485010 0.1199111963310485 1.5832777047568247 101 96 100
-0.1557116060848826 0.2234586018859519 1.2390862443890578 62 72 63
0.1692680896569559 0.2142262430032373 1.1288712721907497 48 33 26
0.0996887548559888 0.0600032682660453 1.0481360612036756 180 135 114
0.4370792651534144 0.2154128344549723 1.4328681813445923 93 26 33
0.0027714209713717 0.2931236723956137 1.1619863606364407 190 168 154
-0.1231299427396596 0.2732683954360310 1.2252841998785662 88 29 35
0.0089692899010912 -0.0892868777481055 1.0556783131546628 36 29 23
0.2979778990684652 -0.1750513750349457 2.2364539822428084 165 130 110
-0.4276810893114157 0.2406029449926985 1.3483365630680579 114 20 44
-1.0075826208156990 0.2040480010267158 1.4034491557118616 126 140 140
0.2867066924820471 0.0184486640380330 1.3831371906231560 147 130 122
-0.5735930878643678 0.2424765829770782 1.3464275632490434 131 139 141
0.0931371854191403 0.0966691212876516 1.0730037203450955 71 68 51
-0.1039932124821895 0.4181888731546087 1.0684267394580933 148 138 149
-0.4116385978662723 0.3868622907944738 1.0570579126461996 113 36 54
-0.0340049428648932 0.3888390652508497 1.0870134919825669 151 140 146
-0.1673460996868004 0.4121911266562944 0.9988363669263374 141 124 132
-0.0150275007433765 -0.1814643951248324 1.1599060189206387 38 31 39
-0.0977968530153423 -0.2051786308554931 1.1025117547967032 137 133 132
