ply
format ascii 1.0
element vertex 697
property double x
property double y
property double z
property uchar red
property uchar green
property uchar blue
end_header
0.2168362358904875 0.0227327638621151 1.4664657446921157 185 180 177
0.0518779828329999 0.2631751976978086 1.0442987003149853 21 22 16
0.3376021871688190 0.0794875967847879 1.4425546330635381 107 113 113
0.1776777309847371 0.0757864170615074 1.3865687580999073 198 196 184
0.3034272911550585 0.1103432330662076 1.3829446804955234 51 64 73
0.3034133143524557 0.1103072211718358 1.3828201724032316 75 99 111
0.0115790634433971 -0.0088126855285645 1.4371217156810709 129 110 93
0.0187723279978936 -0.0076012008219313 1.4431012224033486 123 109 83
0.3282128078937326 0.0983866126611576 1.4097322239546688 61 70 75
0.3119010681084847 0.1199163455520752 1.3724453238985745 75 81 81
0.3685542746972610 0.0942936585052428 1.4349441987899927 87 76 84
0.0783652555201089 0.0016223002964011 1.4601613943853498 143 136 126
0.3895665478386161 0.0941017856999212 1.4331550003852094 60 67 59
-0.0607419454071370 0.1547684886968205 1.1888246597453704 126 113 96
-0.1556125110446042 -0.0131561907273640 1.1049662916410392 82 86 89
0.0338023840546863 -0.1289212915847923 1.2034741882348039 101 74 44
-0.0301042816869342 -0.0821654289608908 1.1114156184529882 172 154 118
0.1331907260141101 0.0458200459862918 1.3933509346442237 141 137 126
-0.0236671238249316 -0.0783923553940745 1.1159807852941945 176 151 121
0.0355013687523864 -0.1206946807979748 1.8058134532092962 113 99 90
0.1665993143555268 -0.2153264547889509 2.0449853576691672 255 252 223
0.1077896663391053 0.0951879718589083 1.2859053379043466 140 127 119
0.0001574636201042 -0.0799542914544938 1.4901277776226418 108 93 90
0.2425151165004398 -0.2162602621675461 1.9731615026213258 133 179 133
-0.1032114009016118 0.0553028051230497 1.1394318593081756 139 85 21
0.1021318383210716 -0.0919489819065944 1.7516024517745592 193 193 181
0.3180989387997773 0.0913191424469427 1.4161082306175345 97 103 115
0.3023612541724528 0.1124074569255894 1.3787362828213825 58 91 96
0.3212713831912697 0.1072625169946441 1.3930064492967986 81 86 90
0.0232876131404685 0.0400186569510909 1.3850572619737711 45 35 0
0.3851218777677143 0.0764301639426480 1.4549659655752760 98 94 93
0.3900611838762860 0.0919032992120128 1.4191341811483238 225 211 198
0.3762647670356902 0.1106895793457335 1.4065427643257211 59 51 49
0.0560836155563904 0.0412237133784765 1.3951493671098105 71 68 51
-0.0628543606375383 0.1630170354019976 1.1537385144079610 128 134 100
-0.0557709070809507 0.1600011723281171 1.1892491907777691 20 20 18
-0.0849128781787285 0.1891654440928807 1.1317417103657614 133 139 127
-0.0148369151739155 0.2060624676007579 1.0943908632032631 124 124 116
0.3659127779658329 0.1042769181940398 1.4134567787512655 203 205 194
0.4162577161855963 0.0755223336322839 1.4579710266531629 65 64 62
-0.0595057782987738 0.1068161439252303 1.2178319065243075 168 103 9
-0.2736514266550268 -0.1999692207430628 0.9543685095217744 132 150 162
0.1964181986471686 0.0484708209549293 1.4323838415020471 164 150 149
-0.3698223046462331 -0.4391546836387949 2.2106531041908224 164 154 144
0.1422640200682761 -0.2517360814349124 2.1163471336286093 53 60 70
0.2462183858469736 0.1081427749434290 1.3640830576291747 180 208 220
-0.1361103966195311 0.1100758107873173 1.1562471181394147 145 110 29
-0.2870336170167365 -0.0822119163754940 0.9256125258394018 40 48 87
0.3800553066385273 0.0746355271651809 1.4627052122753168 92 98 86
-0.1854373483373284 -0.1036207577241324 1.1229899201032574 100 99 104
0.3846903780494283 0.0914318113866155 1.4316636863981014 112 96 96
0.0098087877659248 -0.1875511935887975 1.2582729333946490 252 165 49
0.0131408784232293 0.0590108101584917 1.2819151543586995 170 119 27
0.3103386360544845 0.0620967626324214 1.4658995918477709 238 214 52
0.0440527212600295 0.0362101973312653 1.3578595082158407 54 39 10
0.0413518939474192 0.0961326071845487 1.2337823737365803 53 40 21
0.3990016983883220 0.0956986019332233 1.4205796391408372 120 75 72
-0.3956085121648770 -0.4114538728026130 2.1408208995085025 148 139 132
0.0716467499984276 -0.0776889996617879 1.3957466857310217 89 76 59
0.1864917583592154 -0.0497237996921862 1.6139278162560262 10 10 10
0.0011041581993450 -0.1846295351436674 1.2716058382297570 251 165 46
-0.1123754226693337 0.0279957990297936 1.1410252923127091 27 22 3
0.0248419023675781 -0.1622921150012153 1.2110781378861724 242 222 211
-0.3668116350043771 -0.2950603049034249 2.0897660131067179 38 39 41
0.3645669885351029 0.0823754853512561 1.4148332401712933 96 100 101
0.4067259776793170 0.0933834150709995 1.6163188656908463 10 11 13
0.0908771300534430 0.3311998835013367 0.9939742493115871 175 170 166
0.0910173361562814 0.3309355174574242 0.9941162080417144 218 212 188
-0.1435815452323252 0.1578178258311730 1.2046449569955515 15 13 14
0.3262729544831128 -0.0860504944586320 1.8702119408559397 23 29 27
0.3874311161380122 0.1016156999052335 1.4945374626021124 62 64 61
0.3788714290455777 0.0998941543176890 1.4211067025729238 192 116 129
-0.1640920123594490 -0.0300434940359883 1.0940121746801552 85 84 102
-0.0552016505463561 -0.0538370014851844 1.1029826226626862 229 171 63
0.0160771130365617 0.0018509169176580 1.1802045850664369 164 113 30
0.0785988198373849 0.2795876904685329 1.0432856736493352 55 55 45
0.2850806664194152 0.0817738170674276 1.4185704239974439 183 228 251
0.2977479188765302 0.1283513932096134 1.3539094005100785 83 75 73
0.3689111135677767 0.0942360544995457 1.4270765354930937 67 67 67
0.1181191792914248 0.1021202859850081 1.3276553090029179 19 18 13
0.0692138039549159 0.1487424874983353 1.2420186649151399 176 169 161
0.0516117768007867 0.1634941828507727 1.2166058384530294 175 172 165
0.2624684834387486 0.1107546816974374 1.3684183251790125 210 231 250
0.2775918158357013 0.1173385188356741 1.3638379654320905 206 242 255
0.2661968614981055 0.0856585363487543 1.4053068882296909 140 186 201
0.2715503499348821 0.0814523139400977 1.4142515202234025 161 205 232
0.3718464226145485 0.1015139440952950 1.4211179707081640 104 78 79
0.1630662666732181 -0.0672070809081879 1.6828549808512612 37 39 36
0.1818624456052907 -0.0683822178246825 1.6103560632929093 54 54 52
0.0574636545496441 0.0430756171117737 1.3937119363751282 181 175 161
0.1012629475710788 0.0689152344957103 1.3502825309318329 33 24 9
-0.0011910168732663 0.1803614386670115 1.1726992862368375 44 41 34
0.3267828738210279 0.0951744178653927 1.4118167546109104 135 140 136
0.3127582303826860 0.1072987183275860 1.3906039315455452 112 107 111
0.3244037201322271 0.0985180855906210 1.4088673595830825 147 146 142
0.3248048733107938 0.0980821914626066 1.4079082009047788 119 132 138
0.3132097600522303 0.1186172968352468 1.3765641598872915 71 81 73
0.3036564725910934 0.1253481968615414 1.3593623572868496 146 136 134
0.3926093747748627 0.0696068398713100 1.4739834423950251 33 35 32
0.3633295327928731 0.1048716961870679 1.4091376474946680 83 71 71
0.3850716563478211 0.0652230950839231 1.4695857753223556 37 42 36
0.3724311411903438 0.0891442892980483 1.4433585608000026 51 62 56
0.0621577827174101 0.2184058643004869 1.1405544905048206 136 133 128
-0.1286703197377863 -0.4046414342835677 1.2922961997841202 66 78 102
0.0043148598248641 -0.0035352602202274 1.4496830466691437 129 110 93
-0.1565250793417464 0.2191858638687935 1.0699899329539491 119 116 99
0.0599025102173166 -0.0226311489956280 1.4891236687432492 171 168 159
0.0969662616185515 0.0312487153854193 1.4322971103989630 134 129 123
-0.1105480353736472 0.1601048016344211 1.1639745491981315 38 34 31
0.1804951490378979 0.0401181550905388 1.4393846644690533 139 136 127
0.2144867670608183 0.0253937110249998 1.4736118359550183 191 188 171
0.4304814718240594 0.0306365239779061 1.6810071882471560 85 81 80
0.3089096493000069 0.1032733197394477 1.3952806697612967 89 94 114
-0.0806469903116978 0.1880246749642439 1.1794382731107416 9 9 7
0.0841661325109601 -0.0730247055728074 1.3966131240476449 159 150 135
0.3237639787287018 0.0947229297074249 1.4163325056138696 65 73 75
-0.0560522710291410 0.2504432186322221 1.0547140086840467 53 49 46
0.2032972651707816 0.0534663942634988 1.4396769515939059 25 24 19
0.3194249268070800 0.1102791872254864 1.3884243160497438 62 63 68
0.1028265223369661 0.0620523654174394 1.3951299232212886 36 26 25
0.2082533781253472 0.0335844238681330 1.4597666396046769 141 141 131
0.2083901152467848 0.0427723969041214 1.4542943675673983 32 33 28
-0.0030142806305942 0.2668002816539382 1.0655755974866263 10 10 10
-0.0545166026217703 0.2545124166548841 1.0496747202406813 73 72 54
0.3658134230103393 0.1044123033579041 1.4138146833634508 213 211 199
0.0449773827360311 0.1166985340337557 1.1868754776542376 183 148 54
0.0068054487461098 -0.1063434437442402 1.1402962564907264 255 223 104
0.0130843241806718 0.2212616008917840 1.1178232621878506 192 186 174
0.3758503017143437 0.1001836762943613 1.4160297515626734 92 66 65
0.0374402910400356 -0.1261827447247085 1.2145145923734031 122 87 57
0.0170450849968085 0.2806503248141106 1.0367337914870685 115 108 98
0.4382532989208691 0.0366231628608249 1.6907522870801528 13 13 13
0.3236184165445269 0.1014600285098976 1.4057761428402684 101 100 96
-0.2916280582296930 -0.4232493972717548 2.2283208048668470 252 243 236
-0.1588474700734591 0.1199565503179733 1.1628879267217118 38 39 25
0.1404139080793410 0.0097940346818260 1.4927720619688918 30 29 25
0.4016342807976215 0.0743732695199878 1.4664981723417665 48 47 43
-0.4318955325290678 -0.4843535194238021 2.1878398926114984 190 185 182
-0.4364829470154428 -0.4586066061387758 2.1686566482762699 254 254 252
0.3118681533834938 0.0467735990600250 1.4787139698419616 90 84 84
0.1742803498919666 -0.0557377929048840 1.5968114273453968 75 71 68
-0.1376258802113293 -0.0674683389317820 1.0941899783818976 248 196 74
-0.1926461303742262 -0.1671301494734049 1.1462155260180726 74 66 79
0.0666716963858541 0.2164766928413850 1.1381213245212711 79 77 65
0.2660109062196205 0.0856168261622229 1.4122557846753496 94 170 194
0.0316457346444387 -0.1027632446066885 1.7847727198243037 87 73 60
0.2714880908135884 0.0719888857035388 1.4274563925119665 192 235 254
0.0395534241975457 -0.1036663637756766 1.7797757917310524 82 69 60
-0.2811476069890549 -0.4305184569306666 2.2262211223273098 152 144 133
0.0876685488810558 0.3295664104389626 0.9851878344308483 65 58 48
-0.1415503653293898 -0.3312797090528825 1.2665412834894454 88 103 134
-0.2770302583858055 -0.1240260544505936 0.9365806417671584 92 95 112
-0.1455275274010673 -0.3243545893859624 1.2547370458755971 120 126 162
-0.1935466694236178 -0.2595847918588329 1.1416311547356406 102 110 146
-0.1620460501044167 -0.2699785810626832 1.2115021969925270 104 106 129
-0.0968090320802436 -0.4222031405842397 1.3731177972729691 57 79 118
-0.2159876056646980 -0.1615056926943221 1.1010218528326665 85 91 105
-0.2015067453982554 -0.2532449653485420 1.1214324338962458 81 86 118
-0.2144383797845031 -0.2341138162186345 1.0886180843953499 80 81 112
0.0256357202785868 -0.1333166986416129 1.1901199839600489 255 225 94
0.0137557989996033 -0.1732583563639123 1.1907824674227092 250 219 92
-0.1356229339935338 -0.3026497657089075 1.2853380799888259 82 88 114
0.0934749267601108 0.2055701926533047 1.1563954760181194 21 20 16
0.0470609878434533 -0.0697764126723942 1.1679883981880914 165 97 14
0.1674452415009910 -0.0670226495730283 1.6676816800279322 107 108 103
0.0265912361307340 -0.0422670706240610 1.5073676896400594 53 49 46
0.3521560099452537 -0.1021354470294443 1.8824735232541820 23 32 13
0.0560002726503617 0.0414151867313714 1.3953871693585798 71 68 51
-0.2736129080335486 -0.1998822765724680 0.9554701959270575 134 144 156
0.0003190597517128 0.1389795404481517 1.1855195014623072 66 53 36
-0.5401971367531835 -0.4363467564320664 2.1595147271967829 222 206 190
-0.4401296464463145 -0.4956188717194123 2.2294643742401941 179 171 168
-0.3673635313494175 -0.3797555935677432 2.0970865713979694 174 158 143
-0.0984469837903495 -0.0216865061582211 1.1081078078365876 141 74 19
-0.3785658982732928 -0.3218965255703872 2.0615455336813975 255 253 238
-0.2232114401620889 -0.4088069967302166 2.2364648088977575 255 245 233
-0.4784996516513295 -0.4923853300125872 2.2018435722903491 252 242 233
0.0201884144071538 0.0395387313280067 1.2527397968406555 176 127 34
-0.3047993127029736 -0.3812820977282040 2.1505590717774372 254 254 254
0.0046438732672938 -0.0856112311167272 1.1294057479032935 251 200 95
-0.2829149041839252 -0.0698577086251304 0.9343210856412494 37 44 62
-0.0174499825470700 -0.0654467811812226 1.1233395557773360 243 202 97
-0.1293172714178788 -0.4007783667863604 1.2802749010636234 143 145 170
-0.1187024701975289 -0.4132451684371807 1.3045891260048568 70 75 97
-0.2917281405386705 -0.1706449094450625 0.8860112808114544 53 59 91
-0.1970289762339351 -0.2216052581963173 1.1295220007999167 118 114 129
-0.2238260558793194 -0.1931177630065300 1.0704465009969537 120 126 140
-0.2715335575221890 -0.1238467235254730 0.9491146439048200 91 99 112
-0.5678553808853770 -0.4854799576385480 2.1803563867404909 213 204 189
-0.1359602251525778 -0.3980520093570301 1.2712414710037792 78 84 116
-0.0172866484268686 0.2625124830254165 1.0500375688790653 160 153 134
-0.2051483440965152 -0.2860979357857225 1.0926626294523376 154 157 172
0.0200095769596875 0.1456244435205666 1.1890105990873809 28 23 17
-0.4664859250336693 -0.2856597029074680 2.0692725642267162 69 69 69
0.0865054458335555 0.1051258284399178 1.3091886565437660 28 21 11
0.0348677944015305 0.1889676886382696 1.1845387878485465 83 79 67
-0.4253786668999290 -0.2846405562090951 2.0617470157689817 215 203 179
-0.1095142678097789 -0.0539915072452546 1.0973230260614126 190 120 34
-0.0646390669385296 0.1315137141945977 1.2124879290878146 27 18 13
-0.1113649149564659 -0.3599835470334104 1.3553253302019732 40 45 75
0.0141288132901125 -0.1767336996552006 1.2346157746413666 243 209 122
0.3105627366238464 0.1136007659783777 1.3804201982661937 178 169 170
-0.0065367017637341 0.2155038758163502 1.1046812491515741 20 20 18
0.2725233088269675 0.0777094553128030 1.4193647325823697 201 232 252
0.1569587658120686 0.0864389737989755 1.3640699029075509 156 153 138
0.2711748618473991 0.0735166226855913 1.4250972947551497 146 182 196
0.2706337966518033 0.0758720063658327 1.4216995815432290 157 193 207
0.2683504534758614 0.0851905641759071 1.4076772234277759 203 238 255
0.2540647769875498 0.0989586953886877 1.3823217315986203 207 246 255
0.2562799415447440 0.0984947889391314 1.3831163437592333 152 194 210
0.2517138630196253 0.1058633582014971 1.3714790031241464 216 247 255
0.0565126222882187 0.1644919668152788 1.2115003035733751 172 170 158
0.2607978578398313 0.1090736728051517 1.3682042569040573 190 225 244
0.2608505406244522 0.1105338293224890 1.3670237147552404 144 182 195
0.3015503454379718 0.1241872251115125 1.3626673961813232 95 87 84
-0.0499766257691925 0.1849583875095099 1.1448104474627325 134 134 124
-0.0265394646038193 0.2187712897131511 1.1069167945406755 203 202 184
0.1436593050985228 0.0561086145781392 1.3993798790904208 173 163 151
0.0980792495026321 0.1084974993734247 1.3103594456520116 136 122 119
0.3671141796159664 0.1082808439968925 1.4097280473870508 62 51 57
0.1424368572026251 0.3308456710819585 1.0022148821792016 180 220 228
0.1776696949257130 0.0758531780672595 1.3865631646020840 198 196 184
0.0152789582244884 -0.1154294327044903 1.8219678916664037 103 94 95
0.1257989413838794 -0.0560905244308751 1.7282143549062283 169 171 149
0.1037658438574355 0.0619106273713150 1.3895353905385051 26 16 15
0.0283563167472414 0.1371866916024764 1.1905976784862951 142 102 40
0.2805695561595328 0.0857592532143070 1.4102355598287619 200 225 247
0.3336105040728169 0.0859613576124246 1.4282348910819103 115 114 112
0.3063987810504546 0.1170961336188921 1.3731774897587230 73 78 84
0.1104242958186551 0.3201899809663605 1.0073129780519743 216 218 215
0.2106249192785950 0.0307287806989437 1.4648607331716055 137 125 111
-0.5215509329282428 -0.3162238263905853 2.1182654483130867 109 102 76
-0.1928830081135293 -0.2276960155046945 1.1652361847061443 119 111 122
0.1296619291443183 0.0014832824420719 1.4796058062585917 150 146 137
0.0288151184946114 -0.0357546983416057 1.4989581839111055 97 94 87
0.2707406439147133 0.1046608746914844 1.3791845223357424 92 183 214
0.3318532886451609 0.0789397436449503 1.4385159828823317 164 168 179
0.1092100267515659 0.0728352513465117 1.3210135952435738 59 50 33
0.2842384374890245 0.0784512787154923 1.4229205723031497 185 220 239
0.2664495716367100 0.1025338558993866 1.3809743686228590 211 227 243
0.2864514383061275 0.0758197132750864 1.4277946096602743 181 225 238
0.2768073120991526 0.1178882492555247 1.3618910818104424 187 220 227
0.0965690237851148 0.3315880573161265 0.9990209421827100 222 215 197
0.1062654946859388 0.3265668129406010 0.9978565723069355 94 127 142
-0.3730980171740763 -0.3785346760141705 2.1041850064120311 174 158 143
-0.1330039759453218 -0.4050104350446829 1.2846832902021406 117 115 136
-0.0912392692580646 -0.4461673570767676 1.3798540213844661 120 123 138
0.0832434782483070 0.1256738312587527 1.2731128225159214 154 148 132
0.0673190793922960 0.1458020774974057 1.2438529904615152 154 154 128
0.0399277428832220 0.1836882463349632 1.1800859953216563 83 79 67
0.2704028450505919 0.0770476776235752 1.4199684199708613 203 231 243
-0.2750975989049169 -0.0089173219945013 0.9633831153467353 24 40 76
-0.0106140869210143 -0.0741398442971314 1.5127922455493386 83 80 71
0.0285896711142124 -0.0635891812180288 1.3580785000527589 78 47 18
-0.5279244582960041 -0.5092516686215456 2.2325762260502398 137 133 124
-0.4690452914883009 -0.5294063827384758 2.2595440828401174 251 239 239
-0.5509891251011900 0.5662992399360977 0.7063303272028881 88 104 119
0.0639573695958953 -0.0432709124446842 1.1816973135412079 148 92 9
-0.4923047093984295 -0.5597727806169500 2.2469886433125317 124 121 102
-0.5908728382400935 0.5774293190228315 0.6846458250291242 16 17 19
-0.5196791190046024 0.5632122249358394 0.7189595866142452 18 18 20
-0.5103617709166010 -0.4710784342818495 2.1621374884051039 254 254 254
0.0430498068803817 -0.1502073283394699 1.3678482512980210 35 32 23
0.1757064818729070 0.0476840485766677 1.4294491774331608 49 40 23
0.2699163344863293 0.0741698557508095 1.4231192391401746 211 239 255
-0.1080439639958990 -0.4044593150619990 1.3291215566904258 69 78 95
0.1260991480953352 -0.0567555250292084 1.7347784306784968 206 214 191
0.0374220893396819 0.1818490887934565 1.1832132229647434 176 177 163
0.0575797014541314 -0.0191882950818131 1.4844592074334322 169 165 156
0.1269102763877804 -0.0604895580979204 1.7316561266782073 166 169 150
0.3371238543557840 0.0811850533727861 1.4338294931668594 123 124 118
-0.6467964913428020 -0.4729934297358859 2.1465013560604702 191 172 158
-0.1335670768492057 -0.4103362860041586 1.2844084255205042 29 30 34
-0.1108494124106356 -0.4310630099020519 1.3318318256069488 117 122 141
-0.6087581286500594 -0.4727135409102958 2.1635605488529275 212 193 179
-0.1612205916149425 -0.2649687622218388 1.1969712922060938 135 123 135
0.0239180486171743 -0.1115126755971140 1.8010140455688177 152 94 80
0.0624823471257117 -0.0321321272597651 1.3900664994833829 45 31 18
0.0044230829728917 0.0107227797458099 1.4192405974034739 197 185 171
-0.6750226108521262 -0.4441461488993019 2.1217959711013110 186 167 153
-0.6585129182359397 -0.4422835334032963 2.1277349033079580 185 170 149
-0.1079088562880164 -0.4293160348612386 1.3357155580572724 59 77 99
-0.1000264216389434 -0.4215158345329332 1.3022671069416762 48 56 79
-0.0939882299305305 -0.4434188831603126 1.3662017494286940 117 124 140
-0.6131620748613977 -0.4765119869776459 2.1949057961050817 216 200 184
0.1839549033856688 -0.0710468308441703 1.6165882153998117 91 90 86
-0.1577739624544091 -0.1187538982974046 1.1158257057292820 116 98 84
-0.1481422698821633 -0.3211035904782713 1.2466354327292966 105 114 145
0.1654173602549170 0.0865133685618492 1.3617926553024036 80 74 62
0.0277864776714538 -0.0311316299388973 1.4923804728838426 40 37 32
0.0475040015659352 -0.0178821909525434 1.4305734721726291 48 42 28
0.3159511778101406 0.1145129489679950 1.3812700159253026 81 92 88
0.1404429773358161 0.3408741091185269 0.9949352282638501 135 176 194
0.1891215377220293 -0.0584464180009068 1.5957987194201670 13 11 12
-0.1251783692013053 -0.4149350749727080 1.3058393968161124 126 134 153
0.0262045668897302 0.2024739785526167 1.1494573031151418 206 199 189
0.1081927389690115 0.3342159785288600 0.9966980702319694 225 220 198
-0.6787442287289767 -0.4569507134849779 2.1421588501529412 153 137 124
-0.0934265953043301 -0.4556501547464547 1.3706657476587509 62 82 89
-0.0970065347718272 -0.4354364449827665 1.3335927631794047 49 66 86
-0.5601137840914445 -0.3773837895590743 2.1101128707713315 255 244 225
-0.5413516191560200 -0.3799277439727323 2.1116570176427993 193 177 162
-0.4996974074066450 -0.3647598740719449 2.0892351677982783 238 222 206
-0.5201774404324614 -0.3442752222621573 2.0923048973165290 245 233 209
0.0272196741037585 0.1428057442070759 1.2350277996458745 25 24 6
0.1789601368532877 -0.0329877071157891 1.5603391371730473 20 20 20
-0.6444635896643963 -0.4599463841950912 2.1313860332261916 255 250 231
-0.5687148056686212 -0.3659837121371302 2.1026057597801944 219 204 185
-0.1873598794095807 -0.2567394973531495 1.1532862954574221 52 59 88
0.0007015120509541 -0.1085981866347581 1.1372518044576485 104 78 41
0.0532506931117037 -0.0767143947634704 1.3507924437023102 220 154 41
-0.5476545343422548 -0.3024500894307793 2.1103031031193518 36 45 44
-0.5939238876964394 -0.4311389098632587 2.1323094681346526 219 201 177
-0.5533775183826473 -0.4299501569250854 2.1325385477932293 252 247 241
-0.0355420471649481 -0.0665391333073393 1.5269789118520649 73 70 61
-0.1947457990085673 -0.2027436048535901 1.0841495141671693 141 143 156
0.1780591419388804 -0.0613558236932323 1.5899976814810437 52 51 46
-0.4927184013898755 -0.3727126916407209 2.1082548935040504 254 246 233
-0.1144813886568406 0.1020985002548410 1.1637471788447160 177 130 40
-0.0269566832975730 0.1057099535485382 1.2043894807761504 251 191 35
-0.0535392519766427 -0.0509336401826788 1.1082738428795555 230 179 62
-0.4566767998911108 -0.3005303783406958 2.1010440517292266 231 216 195
-0.0482123227786403 -0.1625093528105212 1.5059859664165778 58 66 79
0.0225484412316549 -0.0290888899916863 1.3398690436038045 249 197 85
-0.2184103569884746 -0.2227894787733121 1.1169014774803614 38 54 80
0.0895358360164763 -0.0717491982395355 1.7845049590726512 252 245 237
0.2656464178418048 0.0855692851815671 1.4057089858095482 140 186 201
0.2750604753639422 0.0749349174042526 1.4243529666915633 112 160 182
0.2652889492559629 0.1041167862015838 1.3782352554058874 162 184 197
0.2608152317460405 0.1105349867048520 1.3671041261431307 144 182 195
0.2631540976800776 0.1073609585807085 1.3728751381758026 171 190 207
0.0308654060048203 -0.0379035105720304 1.5006968605800566 165 162 155
0.1801289820680954 0.2923882686191581 1.0741194765450861 199 211 209
0.0558183359341031 0.0408287901752388 1.3956369456645137 72 67 45
0.0655755862559116 0.1475573093350538 1.2429120859821206 167 169 130
-0.0867559012114380 0.1865427529973900 1.1327225478852829 144 137 127
0.1569298116064081 0.0878213567769678 1.3613226678200288 74 71 56
0.2721024926784033 0.0749037203268530 1.4231738469687085 216 239 253
0.1372505728732449 0.3373776140596980 0.9944566233925265 143 169 186
-0.2391009173814553 -0.1721397821722835 1.0344150380998351 61 68 84
0.2020106316682969 0.0549643992829635 1.4330931990754290 21 20 16
0.2144340109240133 0.0395006017055370 1.4532447093076111 26 28 23
0.2689569542820321 0.0963383176028417 1.3914673275363090 212 236 248
0.3113700078683695 0.0999941776071630 1.4009983614208323 81 94 111
0.3187960231121743 0.1005455205335655 1.4029359976196702 74 90 89
-0.0862287109687599 -0.4487234409148049 1.3820577676810886 47 47 49
-0.6819714807399460 -0.4083792680046096 2.1029359687897360 156 138 114
0.1709763606680062 -0.0330879669113588 1.5599247646013257 143 142 88
-0.1290235437728310 -0.4096198802246787 1.2952029170604695 106 114 137
0.1451994068878871 0.1034514000051565 1.3343017532448940 182 176 164
0.1719036669925807 0.0837661023652782 1.3749522739625868 65 61 50
0.1441565302649146 0.2760939975706398 1.0900516880765285 202 196 170
-0.0471724901573768 -0.0720381542944341 1.5197774442139864 17 17 15
-0.0070836476383611 -0.1010181632524293 1.1367746635769138 207 176 145
0.2619853259675178 0.0903817524177499 1.3968941035484308 199 226 243
0.1409649397289391 0.2811468428643322 1.0785395625537908 219 209 184
0.2846543590450845 0.0780672695984891 1.4226077824365038 185 220 239
-0.6815913351764650 -0.4242606422013541 2.1154520219340029 191 173 149
-0.1146304212443538 -0.4252655965907524 1.3319329274007683 48 67 81
-0.6423989532616576 -0.4337057938235939 2.0967867874156956 255 242 221
0.1544989287045613 0.3120616146803316 1.0374746539965944 179 218 223
-0.5591342656892621 -0.4498817117537510 2.1417969852829541 223 207 191
-0.6389864040311122 -0.3515113895420115 2.0883613990894712 163 146 126
-0.6522550285269828 -0.3287869807067624 2.1001737404968082 202 182 158
-0.6531459680165903 -0.3288899128366881 2.1012553363479793 202 182 158
-0.6688184509379560 -0.4619554169645440 2.1100495058364572 255 245 226
0.1726536830778841 0.2908972825080312 1.0753080576446046 211 233 231
0.0023376333907981 -0.1759716636780714 1.2777782812609007 252 161 56
-0.6024131112214693 -0.3149192956108567 2.0858121388302959 44 44 46
0.0240983724391790 -0.1545392437527849 1.2160134548544150 240 216 204
0.2804978652715387 0.0648559216688435 1.4414989919848402 146 189 205
0.2796510140688389 0.0659557084824343 1.4398738357113816 185 219 244
0.2508769283433765 0.1081042064910766 1.3681864432023170 215 230 249
0.2765545683152139 0.0734421789641989 1.4253890359836645 192 219 249
-0.1020704239502296 0.1438735309246427 1.1883144560898597 85 85 59
0.0894129768317152 -0.0793751430786465 1.7380968956062492 100 94 78
-0.1065525712205531 0.1616245034647259 1.1651165574097773 116 116 88
-0.0564322176458395 0.1923606587222358 1.1418337039423601 42 31 27
0.0744772731775295 0.0239140595145004 1.4261553803259421 129 129 127
0.1797321415909733 0.0437665351050175 1.4338083428253763 138 140 135
0.2789934386189354 0.0653903863070379 1.4375392109533867 121 172 193
-0.5226732501326888 -0.3141531798550466 2.1093384349405038 121 121 111
-0.1243288209865072 -0.4092699449772957 1.2998200963847462 62 73 95
0.1646768604211662 0.0835365503231879 1.3686339325201828 66 63 54
-0.0997164969123371 0.1432189205103595 1.1925800229874224 33 33 21
0.2671138155554605 0.0824165516891342 1.4098680525465452 129 183 207
0.0668462199516749 -0.1115772823173909 1.8261688361811179 160 153 137
-0.0958797745404657 -0.4231517545060551 1.3711494807691704 55 79 123
-0.1113881862166707 -0.4085455388662811 1.3499394173391923 63 109 107
-0.0209229410621636 0.2677844458534331 1.0430986065932721 151 133 121
-0.4913687208511404 -0.3331856544061420 2.1038796100976329 185 170 149
0.3192137435117773 0.0950106577352528 1.4104704606576401 118 119 124
-0.0354871664487265 -0.1047963489195445 1.1020121173788124 177 157 132
-0.6400423313720996 -0.4897055091155872 2.1090366664420026 211 194 174
-0.1387486133288366 -0.3948834483313634 1.2825187872454056 58 68 93
-0.6472007016732936 -0.4596524038438536 2.1345646868549806 254 238 225
-0.7095049566330336 -0.3999253045022506 2.1168495545724482 121 102 95
0.0555580979459811 0.0419638491375359 1.3957232258005310 42 38 29
-0.0144447921075936 0.1987178428652607 1.1406394814562586 188 181 165
0.0166338035247915 -0.1784280095014812 1.2247695379898467 111 90 63
0.0671397653282140 0.1463450881195215 1.2440955024505829 166 165 161
-0.0806786499917563 -0.2104932065197478 1.2781910577957347 110 86 86
0.0407007948985992 0.1831565736620895 1.1796117139047706 31 31 23
0.0155101447104558 -0.1727546755699194 1.1969057960833753 116 84 61
0.0387648257679679 -0.0985504822528501 1.3398540557385172 234 162 51
-0.0865846549674116 -0.0308795360770372 1.1075237091992853 212 173 78
0.0000510660726073 0.1795518251028719 1.1716090190305446 57 57 45
0.0298508224956726 -0.1373583873600940 1.3111643879856207 182 101 45
0.0018138464132695 -0.0701516218328519 1.5103578763592342 9 9 7
0.0615848673183210 0.0619763205870240 1.3535856483058253 30 25 22
0.1729580753259146 0.2913084127033975 1.0751385526656629 129 131 144
0.0435443928741414 -0.0298149358040617 1.5001135253508360 36 36 34
-0.0213964389153734 -0.1974491038902359 1.2859606760578459 253 255 112
-0.4974519755671842 -0.3899130304230778 2.1273175757304879 255 246 229
0.0245079543637532 -0.1540660260425303 1.2160356040444402 216 195 192
-0.0411083889377097 0.1838705187461597 1.1368405264426886 21 21 13
-0.0173354503759443 0.2138176187228869 1.1050998563806025 45 48 31
0.1536604415622891 -0.0385664915358032 1.5632217198726164 166 154 106
-0.1210355747226933 0.2163719038020225 1.0696384204292035 61 66 59
0.0989597723033628 0.0931610442859669 1.3442388408162873 161 154 138
-0.1399045405136116 0.2095791815237841 1.0820779127428100 139 136 129
-0.1096073524173729 0.1698638298645749 1.1346833723624201 117 118 112
0.0154995326675138 -0.1789796158534921 1.2336660602267093 242 200 88
-0.0143493488915791 -0.0783286187701347 1.1132310796229834 88 64 26
-0.0866545966744898 0.1379320455218744 1.1900149175909229 109 107 92
-0.7901101733294205 -0.4375761613271605 2.0769823206429261 148 135 119
-1.1254192004830996 0.4983548811112229 0.6125297583201744 177 133 120
-0.0270013688548202 -0.1179923842708221 1.1015601043801349 186 168 146
-0.0138658910922698 -0.1302885401909623 1.1192911210528540 105 79 46
0.0292381552845249 -0.0896884368715162 1.8121255443918842 50 48 36
-0.0814153368957095 0.2334615597515025 1.0572558582894924 121 108 100
0.0191709391505582 -0.1733773327741313 1.2181006749266265 242 219 211
-0.5835220614291261 0.5729899094952073 0.7118365823142223 70 85 88
-1.4235216875165653 0.4189031743925816 0.6945957629630085 198 164 154
-0.7745154109912777 -0.4196603784220098 2.0842823097492071 156 140 124
-0.0639127655543062 0.2081152746809381 1.1102204498243649 47 44 37
0.0005829126085317 0.1787245211054082 1.1712078018923320 32 31 26
-1.5034943067510063 0.4204545430763258 0.7295224880060271 41 39 40
-0.6726714197341014 -0.4733571948355161 2.1040962274929131 224 207 187
-1.2963795715285324 0.4094330084238966 0.5171110337215071 148 97 104
-1.0967319685982422 0.4576698448248528 0.6444537593406535 44 44 44
0.1000588033620573 0.0663741700956158 1.3320169455951290 63 50 33
-1.2537546790565974 0.4150723584348434 0.6393649887413588 193 175 155
-1.1522130581078955 0.4583318316140459 0.6152851285718517 207 185 164
0.0202775970611146 -0.0310857409666196 1.3372206328245391 254 201 95
-1.2946248461916441 0.4603350222547815 0.7061635252252547 41 41 41
0.0974988629722205 -0.0861500969583317 1.7483146259947715 159 157 136
0.0996198995760496 -0.0860548054735561 1.7485970660554460 232 230 209
0.1650013964539367 0.0099014049235505 1.4878439543748090 164 155 150
0.1069847547273410 -0.0962456520595477 1.7644142192438204 191 183 180
0.0391172594893874 0.1212787058735443 1.2669067401435021 47 45 33
-0.9332406519467303 0.5891799459359243 0.5541399145129127 203 140 133
0.0625999845156799 -0.0277245300742806 1.5083153691658235 128 131 124
0.1771591602095311 0.0890863315258510 1.3665716052254893 53 47 51
-0.5588644157194645 0.5953106010621894 0.6658295216626452 44 42 47
-0.1536068862130859 0.2161796243507705 1.0703187381611927 95 91 88
-0.0989642963709879 0.1836792884235716 1.1341834611491410 120 111 106
-1.0731926846321846 0.5733997693444279 0.5041533226525763 182 106 106
-1.0319001767212652 0.5794657403580193 0.5553056387994876 167 148 134
-1.2042825073883188 0.5703868502526042 0.5876709533922829 177 147 137
-0.9903149144884451 0.5904557105116566 0.5570516902602668 170 129 123
-0.8786023860898512 0.6016225273681421 0.5613298673753556 44 47 38
-0.9919137922913895 0.5724096648357868 0.5469179593183365 152 118 109
-0.0903284728764219 -0.1009531636970151 1.0849710427741528 212 135 27
-0.9109890236838648 0.6073082728435594 0.5490397951782019 224 167 173
-0.5231660819722088 0.5417869502148476 0.7209913829076887 26 26 28
0.0301524331695777 -0.1358457278962746 1.3126630450908205 182 101 45
-0.8554682809850599 0.6082428358113103 0.5492593066301010 206 186 175
-1.0955379878035310 0.5944789073953778 0.5557603727770282 186 167 152
-0.0794316012480254 0.0005222731034461 1.1129800606867248 142 83 17
-0.9427347083387453 0.5899189206588066 0.5674964471574324 39 37 38
-0.7999949538698857 0.5937956188624898 0.5720485866088953 53 52 50
-0.0125595710877453 0.1287864419742294 1.1775001722715692 44 40 29
-1.0871200398858274 0.5349955565059427 0.5544538098389521 201 184 168
-0.5070298121716552 0.5758846109669471 0.6878287635506456 112 121 120
0.0247764258048207 0.1572791890983816 1.2222753606148784 17 16 14
0.0976220744470328 0.1084056411655914 1.3103538658892679 141 140 135
0.2513027618025785 0.0982136509156421 1.3797906368796964 223 253 255
0.2555106930591549 0.0991778148125481 1.3838282328459837 142 181 196
0.2605969665762742 0.0901238528828650 1.3957565237103364 216 238 255
0.2484215389358238 0.1064871705281751 1.3688283125433816 186 218 231
0.2506381086887023 0.1066485657248643 1.3699020552017702 122 169 177
0.1788289287896122 -0.0361320445590242 1.5531683420475000 24 20 19
0.2436950623622980 0.1089248104101659 1.3640864065123945 208 221 237
-0.0077325504083155 0.0141356883791339 1.4098650136191899 122 113 98
0.0669870545254288 -0.0320851319817172 1.5040746074196876 155 151 142
0.1227469745420081 -0.0581874760140909 1.7422618514537147 114 105 98
0.0411714156208011 -0.1079110092439238 1.2076885615368504 255 220 118
0.1556080224442166 -0.0406399395591165 1.5614402340565383 165 154 108
0.1777673682273241 0.0755478179119643 1.3865083787774244 194 189 183
0.0348973620690063 -0.0429368952994972 1.5102332043208513 146 145 127
0.1941392385911311 0.0543099143890818 1.4224550273811347 194 193 173
-0.0057308453482852 0.1143113386273739 1.1858679442457498 197 157 44
0.0308588674735912 -0.1006741947182696 1.7947297970862237 209 199 187
0.1122880003494197 -0.0610666686130362 1.7458519839047055 154 150 139
0.1723410371319012 -0.0344745549064287 1.5581355647461257 105 106 90
0.1708517636376038 0.0859508941206409 1.3679467219834964 122 118 117
0.0664056799888851 0.1468553841886840 1.2445263128999773 166 165 161
-0.1179836570540045 0.1639731971190309 1.1579683087614314 81 78 69
0.0557295332928082 -0.0340194591508507 1.4204030238266787 35 34 29
-0.3466653547558257 0.6377202150559044 0.5731222688962609 114 99 106
-0.0645193946671735 0.2085716099874544 1.1102951360411528 42 39 32
0.0894305239602277 0.1111042782787598 1.3015250478239979 38 29 14
0.0020141165862082 -0.1697920772873861 1.2801655793745654 228 153 52
-0.7747621882142630 0.6310934622571029 0.4809982870335367 219 148 154
-0.5184993888859767 0.6145185840270457 0.5310110448980478 193 132 127
-0.4666923035588795 0.5646571105403857 0.6578819349846543 29 31 30
-0.0492521579282711 0.1060410651818963 1.1956728454285641 12 9 4
-0.7785565081014719 0.5935207782355226 0.5329577348359538 206 192 179
-0.9643355495257602 0.5814363694918803 0.5284795728537780 203 191 169
-0.6400939600532221 0.6200694854089530 0.5211536661311442 233 216 206
-0.0029942107288541 -0.1259557398106129 1.4061904012364952 29 29 27
0.0675622759934285 0.0208156252951347 1.4274044008464062 167 167 167
0.1015688518801221 -0.0125118254386659 1.4889254116698267 178 175 166
0.0908632571013784 0.1100342504861654 1.3055694504748443 96 91 72
0.1941235188717108 0.0520783919563800 1.4266971742563395 157 149 136
0.0166798225674598 -0.1772037340975019 1.2133027061931536 220 204 204
-0.1297819227385868 0.1939146823474470 1.1084495077017058 146 145 141
0.2585360451474932 0.1113467801185508 1.3661149309990668 201 220 237
-0.0252579373919173 0.2170001308406303 1.1110538254101343 187 183 180
0.0587736436214255 -0.0220863338601084 1.4900212894932057 171 170 165
0.0559902450534389 0.0406755143128027 1.3955628406480123 35 31 30
0.1061369556530850 -0.0963477149683815 1.7599710846667367 170 163 155
0.0979402960822675 -0.0890460855740674 1.7706090441156674 170 163 155
0.1787685409817176 0.0453048884479025 1.4317536377913622 82 72 71
0.2707775684538046 0.0735653045665180 1.4252213785437251 147 181 206
0.2711546478719574 0.0721421161409703 1.4276153202647452 198 218 251
0.1097943100140995 0.3249731399281216 1.0058282180455194 137 139 136
0.1884169975942024 0.3261823369777105 1.0287328768543487 153 206 212
0.1846112583893909 0.3466019725993523 0.9953026982939409 113 145 160
0.2717585508013785 0.0986398394755526 1.3917434088501202 182 214 237
0.2819086462191701 0.0624952860713819 1.4448870555406790 118 170 192
0.1554052178866649 0.2733670839631783 1.0939949529978468 162 152 143
0.0921964188511104 -0.0827369307906179 1.7419896110587687 144 131 138
0.2635401362170831 0.0851877503349252 1.4084013134249482 208 223 244
0.2088791989063045 0.3026242556788661 1.0712658981048044 128 151 169
0.2102723109202010 0.3057499627643903 1.0673508945993675 169 163 175
0.1027390453849439 0.0885876491469124 1.3404757827277196 151 144 125
0.1273205930955150 0.0502624410036353 1.4049831266092740 150 147 142
0.0165903620906452 -0.0183006391866333 1.4673275219129989 128 127 125
0.1436602613218675 -0.0573854581728085 1.7403027204068848 122 118 109
0.0333337197890004 -0.0410140286777098 1.5046309114925462 148 147 145
0.0369012151776340 -0.0022664621750769 1.4511603145214076 161 142 144
-0.0785018933102852 0.1917287249294237 1.1317373785248650 11 11 11
-0.3585701520823231 0.6430683131627487 0.5629787150877206 90 75 78
0.0984485924789304 -0.0903565860474865 1.7563599164960366 173 166 156
0.1092170178379130 -0.0050629535430593 1.4924976428017815 11 11 9
0.2142147573288386 0.0255161512870763 1.4735978195790531 179 181 160
0.1347123135100799 0.0021275712433740 1.4838954687184167 51 48 43
0.0422164429824926 -0.1114573893466491 1.7920602519508964 162 115 105
0.2144662637264964 0.3043658000077059 1.0702706025882684 77 122 145
0.1519262819079168 -0.0463879996856080 1.5595696997117428 27 32 35
0.2615877606347538 0.1000781424660905 1.3817870258905367 75 155 180
0.2148435947222602 0.3071583643359709 1.0660650916419678 76 65 81
-1.0508736502004337 0.5979219556725145 0.4025596213176008 215 130 135
-0.9488298382705445 0.5968939067653688 0.4621834525352624 219 134 141
-0.6904817718677863 0.6110550408443757 0.5493267607854817 231 170 175
0.0272367151749354 0.1423369080478748 1.2350439230611832 31 26 20
-0.3773975326121285 0.6092477878361918 0.5524332410855748 196 125 129
-0.0246211448149766 -0.0744659052808279 1.5377176690209451 17 17 17
0.0445875725444121 -0.1111209270537603 1.2100808379297969 127 79 41
0.1063482583895348 -0.0528788914861375 1.7651461825083090 190 192 181
0.1948393185487164 0.3263963562578824 1.0294380519051070 70 50 78
0.0384245407754710 -0.1268710721286262 1.2146777539358242 99 73 58
-0.3630320257316472 0.6338541395784345 0.5717150948751573 170 156 153
0.1333690280778896 -0.0576177280077590 1.7763351123623039 145 133 137
-0.3607273528481664 0.6006875131265187 0.5424508580495946 95 90 86
-0.6986512258163045 0.5980721931486040 0.5495928532457887 212 162 153
-0.4243144051378134 0.5275724080037545 0.7127312477170981 17 19 18
0.0549993943311540 0.0308133011119699 1.2825920569244897 43 30 14
-0.7890963084198012 0.6172081468855682 0.4292778279496990 201 130 126
-0.7998009544049146 0.6264991747771937 0.4263221237162261 225 144 150
0.1058080712194262 -0.0496845261645208 1.7847214349066483 143 138 134
0.1012769070197467 0.0934061733516979 1.2812303403689513 44 43 41
0.0993508397236466 0.1021366749885403 1.3257485547027090 31 30 25
-1.0589345128915946 0.6334883123461830 0.3561462795670396 207 121 122
0.0268920218446953 -0.1707124735220246 1.2558786491129181 255 243 121
-0.0657832002689851 0.2103388894721451 1.1099665881355447 41 42 37
0.0480491700733284 -0.1054363774289009 1.7701327402767097 134 131 126
0.0939684607001140 -0.0919515586518265 1.7501383234944539 211 205 191
-0.0403511311939505 -0.0857033661427696 1.1028300042424388 80 54 29
0.0361148985867547 -0.0443908294095688 1.5096934582633812 136 135 133
0.1817768028205242 0.0143093988618001 1.4862560625571022 15 15 13
0.0639196202716747 -0.0278988812761164 1.4989838257598018 158 154 143
-0.3590058418334805 0.6438496823161042 0.5622167389864505 90 75 78
0.0186642323338454 -0.1236425156723157 1.7970771845090525 69 65 62
0.0841107088652772 -0.0780737381844483 1.7425539229713698 93 82 88
0.2110517080346786 0.3086563652040114 1.0630752963397561 103 119 144
0.0878711161636087 0.3330678432051201 0.9851125487661057 48 47 42
-0.2345242240499358 0.6317573934413707 0.5119503847573956 118 144 131
0.1734046215742392 -0.0349873135439932 1.5578198169457733 249 247 208
0.1021212824855084 0.0894356344703575 1.3406438024700931 129 128 124
0.0400226567158649 -0.1163644399411674 1.2067468208518557 238 180 80
-0.1330963645902491 0.2037917111200856 1.0864235127797430 15 15 13
0.2802270819726129 0.1203306983101258 1.3624265058893696 77 155 191
0.0944760270917654 -0.0933845843081565 1.7521785785718524 220 216 217
0.0624098567454648 0.2177456739404823 1.1415821536744850 125 125 123
0.1675318121504546 0.0073573074582479 1.4828840107833057 156 146 137
0.2889237952020902 0.0557208192367556 1.4573422436352057 187 214 241
-0.2316287303627003 0.6464039351890407 0.5338245167559933 128 149 130
-0.8275438703261239 0.6089657125748245 0.4340105836831079 223 152 158
0.1055020553995512 -0.0519956358340324 1.7663236300352547 192 190 178
-0.9014978178452202 0.5924162970720185 0.4371345960819688 225 150 154
-0.6575477579060579 0.6497596896296980 0.4154441176200804 217 137 148
-0.6474632875698645 0.6606646860743940 0.3873351834034614 208 146 151
-0.0005472921445507 0.0825573962836562 1.2211959439710856 168 85 19
0.2113879606842251 0.3064588759773192 1.0661976437250962 176 176 186
-0.2800949933415856 0.5991511156751262 0.4979134760580980 132 129 122
-0.9211293007722536 0.6575032607899109 0.2684297854607426 127 77 44
-0.6921764046699571 0.6557373041537538 0.3576587337339172 225 150 157
0.0210361399398604 -0.1778314948942518 1.2504834204602837 255 221 111
0.1615892865523990 0.3522423837284667 0.9823127322690474 166 154 154
0.0473209736196260 -0.1174860833967876 1.8165058031975003 130 124 110
-0.7349613793829313 0.6001381702144298 0.5826082125593890 32 30 31
0.1121927918268445 0.3795360021608185 0.9465884081819089 36 36 36
-0.2510032641831834 0.5794526128343418 0.6228156302952974 16 16 16
0.0142527927077569 -0.1372295043749928 1.7781966350623339 22 22 24
0.0941530092820809 0.0396063818730987 1.2931326290484650 255 229 104
0.3101248610911584 0.1017284153172397 1.3982492274724039 68 84 100
0.3102235979431291 0.1216842968452391 1.3661901203111979 59 68 65
0.0352668942150717 -0.1101374101318313 1.7793177204123971 36 37 32
0.0560614797888619 -0.0177775593552829 1.4809027077080661 123 125 124
0.3065486638871276 0.1354848688904977 1.3481094662263313 82 169 196
-0.0820381022644654 0.6650019707559742 0.5230937490062294 73 90 72
-0.3536237543865275 0.6236793016028613 0.6012314057556566 39 39 41
-0.6150497054329175 0.7015168045259926 0.2971898078525954 159 94 98
-0.1019209055009531 0.6408809367978077 0.5107619651596645 103 99 96
-0.0974216761564811 -0.4329153165367697 1.3814768219597733 109 106 125
-0.1679969466818650 0.6478830681055552 0.5221588046009653 197 191 179
-0.2775352682802757 0.6367409901145220 0.5271630459797486 205 199 185
0.0495047895832794 -0.1077176707103148 1.2064002746154232 248 189 99
0.1677082415861567 -0.0078837411297697 1.7178652453539629 55 55 55
0.2869277379758727 0.0748425671282580 1.4271415489966948 207 228 245
0.0143040006541608 -0.0050171255056245 1.4486906607348500 61 60 58
0.0168101362156426 -0.0064130567561139 1.4485155914052230 90 87 80
-0.3293095318393319 0.6389406439332905 0.5559605140272402 161 152 145
0.3013518464557835 0.1324357399391755 1.3500624070840175 49 49 49
0.0376306042421636 -0.1127609942318138 1.8007670633495190 66 58 55
0.2849794992007396 0.1280645435873483 1.3511838210733806 74 160 195
0.0346908101523477 -0.1203741184699243 1.2075886030003877 249 198 109
-0.1553683732189062 0.2180737729583728 1.0701712650534851 95 91 88
-0.5175395429594510 0.5686447330650055 0.6552402335980608 90 87 96
0.0208579869887380 -0.1145386499634532 1.8123592447441064 52 42 43
0.0481543715836966 -0.0302812136650703 1.4210739197784694 35 31 28
0.0645382606323773 -0.1184500099433714 1.7671318638367788 45 45 43
-0.0172434635538518 -0.0568400231997565 1.5284049976898517 6 6 6
-0.2881656676099131 0.5522105892695865 0.3806938311711009 164 187 171
-0.2078674875155017 0.5955079066724029 0.4803772420644833 140 141 135
0.1020404805378166 0.0697965901199078 1.2585204656703883 15 11 8
0.0206584122100854 0.1530625368043075 1.1817264317210892 28 27 25
-0.0716029077003254 0.6889114899353859 0.5296994639393087 142 138 135
0.0187085760522978 -0.0917072680729782 1.7770084644269590 104 95 96
0.0909290604703274 0.1103513685650681 1.2884878704732428 14 15 10
0.1288761928700870 -0.0680592234070775 1.7622637165876447 125 120 126
0.0129879840675012 -0.1924495765742727 1.2332167633646898 254 240 92
-0.4102497465480164 0.6146836988511799 0.5458867102800388 124 107 97
0.0366781991347297 -0.0383511864343271 1.3353062959609583 219 167 68
-0.1221856890081263 0.6514337975081274 0.5292470260639027 152 156 139
0.1923628305038607 0.3663833770519341 0.9784692216997560 204 181 163
-0.7871343979541333 0.6960619737166145 0.2283861235265729 231 209 198
-0.8469451023419647 0.6801932717457270 0.2825042802285135 229 204 197
0.0999919717724202 -0.0845654226852505 1.7706838280927872 222 217 214
0.1001941757763579 0.0354880698458196 1.2932373258273391 255 207 99
0.0752679936723419 0.0009928453195349 1.4606062756570268 144 146 132
0.0910563246870229 0.1095227123877311 1.3056436517025334 96 91 72
0.0925703429967579 0.1075825684198939 1.3110578232969132 147 137 125
0.0200399471024713 -0.0175757638325724 1.4698105985927483 38 39 34
0.1021051742328494 0.0534303229663131 1.3923844777766883 159 158 156
0.0108466059172529 -0.0057500895419648 1.4484731299998026 23 19 18
0.2661542268538092 0.1057476353878446 1.3765844426985205 205 234 252
0.0507923440451717 0.2379374749890074 1.1070496218278021 183 179 176
0.0553866468362969 0.0411948299437554 1.3958250705218309 54 50 47
0.0684971604435755 0.1466983639461798 1.2442128820995986 71 64 56
0.0441513441969153 0.0586306974964820 1.3634620027640438 43 31 19
0.2707143147598174 0.0790693124106437 1.4171607754309310 204 239 255
0.2745272563229167 0.0766490907805582 1.4224079871462343 192 232 255
0.0775095740858569 0.0690722855192850 1.3613833282283050 148 135 126
0.2798514809202364 0.0824174662419053 1.4147928492877884 195 227 248
0.2791453716550894 0.0814384105479926 1.4164828039949737 119 162 194
0.2817884622698150 0.0671818328730013 1.4377790017784480 162 208 242
0.2584820351872084 0.0951007029628452 1.3891735610527665 142 173 191
0.2453707667054149 0.1087670541543956 1.3654703584655099 139 166 187
0.2487365680591214 0.1108642170071720 1.3631619702015876 178 229 255
0.2494220272791615 0.1037813570886366 1.3742688293012608 181 210 226
0.2675113663853462 0.1013969696258220 1.3835042314212616 136 179 196
0.2541886797970760 0.1012659317350354 1.3778375552606381 125 172 192
0.2546677701812488 0.1035626145559768 1.3771398455554276 179 214 234
0.2687374743786569 0.0756886714093458 1.4198975014241746 217 236 251
0.0387359095331496 0.1797981514017247 1.1831481013720515 147 157 149
0.0502274265381667 0.1649267520518596 1.2109387938878877 133 130 125
0.2809499996827036 0.0862735207095281 1.4104744690909454 185 212 233
0.2811128796192577 0.0859997970910378 1.4104118615902739 185 212 233
0.3149583110889224 0.1058070960292233 1.3942032496412349 41 61 60
0.1775538386635150 0.0756386316905125 1.3864751169242506 183 182 180
0.2177528946454586 0.0352879041309799 1.4632827039798422 21 22 17
0.2175623138463288 0.0355283685438903 1.4688551279740945 24 25 20
0.2736305658693072 0.0736319740229079 1.4263822552469749 208 227 241
