ply
format ascii 1.0
element vertex 1168
property float x
property float y
property float z
property uchar red
property uchar green
property uchar blue
end_header
0.179310 -1.586207 -5.451035 242 220 166 
0.206897 -1.586207 -5.451035 228 178 111 
0.234483 -1.586207 -5.451035 205 125 47 
0.261168 -1.580756 -5.432302 215 112 30 
0.287671 -1.575342 -5.413699 216 102 25 
0.507719 -1.578045 -5.422985 214 84 41 
0.535163 -1.578045 -5.422985 205 74 34 
2.791209 -2.527472 -8.685715 169 145 105 
2.835165 -2.527472 -8.685715 187 163 123 
3.540984 -3.016393 -10.365902 208 186 147 
3.558442 -2.987013 -10.264935 202 180 140 
3.610390 -2.987013 -10.264935 180 161 120 
3.662338 -2.987013 -10.264935 184 169 127 
3.714286 -2.987013 -10.264935 182 168 126 
3.766234 -2.987013 -10.264935 178 161 122 
3.830619 -2.996743 -10.298371 174 153 117 
3.895425 -3.006536 -10.332026 183 162 126 
3.960656 -3.016393 -10.365902 189 170 135 
4.013115 -3.016393 -10.365902 206 192 156 
4.065574 -3.016393 -10.365902 222 209 174 
4.131579 -3.026316 -10.400001 220 205 171 
0.948819 -0.452756 -1.555906 34 31 26 
0.956693 -0.452756 -1.555906 30 27 25 
0.964567 -0.452756 -1.555906 37 33 32 
-1.328850 -0.629455 -2.126160 21 19 22 
-7.281250 -3.656250 -12.350000 23 22 29 
-7.218750 -3.656250 -12.350000 22 22 22 
-7.156250 -3.656250 -12.350000 22 23 18 
-7.093750 -3.656250 -12.350000 23 23 18 
-7.031250 -3.656250 -12.350000 25 25 20 
-6.968750 -3.656250 -12.350000 16 15 12 
-6.572491 -3.479554 -11.753160 15 14 15 
-6.417583 -3.428571 -11.580953 22 20 25 
-6.335766 -3.416058 -11.538687 22 19 29 
-6.277372 -3.416058 -11.538687 22 18 32 
-6.151625 -3.379061 -11.413719 22 18 30 
-5.964664 -3.307420 -11.171732 21 19 25 
-5.846154 -3.272727 -11.054545 35 32 34 
-5.956834 -3.366906 -11.372663 42 37 39 
-1.012552 -0.979079 -3.307113 20 19 29 
-0.991667 -0.975000 -3.293334 20 19 27 
-0.972973 -0.972973 -3.286487 17 16 24 
-0.956341 -0.972973 -3.286487 19 18 26 
-0.938733 -0.971963 -3.283074 24 22 31 
-0.921162 -0.970954 -3.279668 25 22 31 
-0.898043 -0.963955 -3.256025 22 19 27 
-0.879753 -0.961973 -3.249332 23 21 27 
-0.858896 -0.957055 -3.232720 20 18 23 
-0.841675 -0.956078 -3.229418 18 17 20 
-0.824490 -0.955102 -3.226123 10 8 11 
-0.808163 -0.955102 -3.226123 21 19 22 
-0.791837 -0.955102 -3.226123 21 19 23 
-0.772358 -0.951219 -3.213008 15 13 17 
-0.752275 -0.946411 -3.196764 16 15 18 
-0.735354 -0.945455 -3.193536 20 20 23 
-0.729614 -1.004292 -3.392275 25 23 22 
-0.712446 -1.004292 -3.392275 31 21 14 
-0.695279 -1.004292 -3.392275 72 44 29 
-0.678840 -1.005371 -3.395918 151 102 78 
-0.766169 -1.164179 -3.932338 183 123 92 
-0.747198 -1.165629 -3.937236 189 135 96 
-0.193901 -0.731822 -2.471931 143 88 43 
-0.181250 -0.731250 -2.470000 192 137 87 
-0.168882 -0.731822 -2.471931 141 97 57 
-0.173611 -0.812500 -2.744445 94 63 40 
-0.160558 -0.816754 -2.758813 73 56 41 
-0.145960 -0.813206 -2.746829 88 69 53 
-0.132867 -0.818182 -2.763636 203 173 150 
-0.119089 -0.819615 -2.768476 186 159 132 
-0.095163 -0.742268 -2.507216 100 86 69 
-0.082474 -0.742268 -2.507216 105 98 98 
-0.069841 -0.742857 -2.509207 81 65 64 
-0.014260 -1.668449 -5.635651 104 69 39 
0.014260 -1.668449 -5.635651 92 82 65 
0.096886 -1.619377 -5.469896 211 224 204 
0.124138 -1.613793 -5.451035 222 228 196 
0.151724 -1.613793 -5.451035 227 224 183 
0.179931 -1.619377 -5.469896 237 217 166 
0.207612 -1.619377 -5.469896 222 176 112 
0.235294 -1.619377 -5.469896 200 125 50 
0.262976 -1.619377 -5.469896 217 119 42 
2.500000 -2.785714 -9.409524 164 130 93 
2.547619 -2.785714 -9.409524 197 164 125 
2.592798 -2.592798 -8.757895 217 194 152 
2.615385 -2.571429 -8.685715 227 206 164 
2.659341 -2.571429 -8.685715 224 204 163 
2.703297 -2.571429 -8.685715 187 165 125 
2.747253 -2.571429 -8.685715 175 154 114 
2.768392 -2.550409 -8.614715 182 161 120 
2.811989 -2.550409 -8.614715 182 160 120 
2.863388 -2.557377 -8.638251 192 170 130 
3.488525 -3.068852 -10.365902 188 166 127 
3.564356 -3.089109 -10.434323 190 169 130 
3.605263 -3.078947 -10.400001 198 177 138 
3.645902 -3.068852 -10.365902 179 162 121 
3.686275 -3.058824 -10.332026 196 182 141 
3.738562 -3.058824 -10.332026 203 189 149 
3.803279 -3.068852 -10.365902 169 152 115 
3.868421 -3.078947 -10.400001 161 139 105 
3.921053 -3.078947 -10.400001 168 145 111 
3.973684 -3.078947 -10.400001 173 151 117 
4.013115 -3.068852 -10.365902 187 170 135 
4.078948 -3.078947 -10.400001 204 188 154 
6.125874 -3.272727 -11.054545 113 88 69 
6.138889 -3.250000 -10.977778 88 69 54 
6.216028 -3.261324 -11.016028 76 62 52 
0.956693 -0.460630 -1.555906 39 36 34 
0.964567 -0.460630 -1.555906 44 40 40 
-1.328850 -0.640215 -2.126160 24 23 24 
-6.689420 -3.249147 -10.790444 19 19 21 
-7.343750 -3.718750 -12.350000 19 18 27 
-7.281250 -3.718750 -12.350000 16 15 22 
-7.218750 -3.718750 -12.350000 13 13 14 
-7.156250 -3.718750 -12.350000 22 22 20 
-7.093750 -3.718750 -12.350000 18 19 16 
-7.031250 -3.718750 -12.350000 17 17 14 
-6.968750 -3.718750 -12.350000 13 13 12 
-6.572491 -3.539033 -11.753160 14 14 15 
-6.324910 -3.436823 -11.413719 13 12 17 
-6.177936 -3.387900 -11.251245 17 16 23 
-6.056338 -3.352113 -11.132395 23 21 31 
-6.000000 -3.352113 -11.132395 23 21 30 
-5.902098 -3.328671 -11.054545 25 25 29 
-5.825784 -3.317073 -11.016028 31 31 31 
-5.790210 -3.328671 -11.054545 39 38 36 
-0.975000 -0.991667 -3.293334 20 19 27 
-0.957336 -0.990635 -3.289907 22 21 29 
-0.940687 -0.990635 -3.289907 27 25 35 
-0.923077 -0.989605 -3.286487 24 22 32 
-0.904564 -0.987552 -3.279668 21 19 28 
-0.881565 -0.980433 -3.256025 21 19 26 
-0.862423 -0.977413 -3.245996 20 19 24 
-0.841675 -0.972421 -3.229418 21 20 24 
-0.824490 -0.971429 -3.226123 14 13 17 
-0.808163 -0.971429 -3.226123 21 19 24 
-0.795082 -0.975410 -3.239344 21 17 25 
-0.773931 -0.969450 -3.219552 19 13 25 
-0.738070 -1.009544 -3.352704 33 34 33 
-0.728051 -1.019272 -3.385011 37 26 23 
-0.712446 -1.021459 -3.392275 56 28 16 
-0.696026 -1.022556 -3.395918 148 99 74 
-0.788030 -1.187032 -3.942145 203 140 105 
-0.768080 -1.187032 -3.942145 189 126 87 
-0.747198 -1.185554 -3.937236 186 138 98 
-0.727273 -1.185554 -3.937236 228 196 156 
-0.181250 -0.743750 -2.470000 187 126 82 
-0.168750 -0.743750 -2.470000 139 91 56 
-0.173611 -0.826389 -2.744445 88 54 31 
-0.145833 -0.826389 -2.744445 63 49 32 
-0.132404 -0.829268 -2.754007 167 149 121 
-0.117851 -0.824957 -2.739688 201 178 148 
-0.095314 -0.756156 -2.511199 113 94 72 
-0.082540 -0.755556 -2.509207 101 90 81 
-0.069897 -0.756156 -2.511199 70 57 53 
0.097391 -1.655652 -5.498435 215 224 207 
0.124138 -1.641379 -5.451035 224 223 200 
0.151724 -1.641379 -5.451035 227 222 187 
0.180243 -1.649913 -5.479376 235 218 170 
0.208333 -1.652778 -5.488889 222 180 116 
0.236111 -1.652778 -5.488889 201 127 54 
2.430678 -2.808259 -9.326254 162 129 91 
2.470588 -2.800000 -9.298823 165 134 95 
2.517647 -2.800000 -9.298823 204 175 135 
2.527536 -2.759420 -9.164059 194 167 129 
2.515581 -2.696884 -8.956374 207 183 147 
2.525140 -2.659218 -8.831285 204 183 148 
2.527472 -2.615385 -8.685715 184 165 130 
2.571429 -2.615385 -8.685715 211 196 159 
2.601093 -2.601093 -8.638251 200 186 147 
2.630435 -2.586957 -8.591305 199 186 148 
2.673913 -2.586957 -8.591305 198 184 145 
2.717391 -2.586957 -8.591305 184 168 127 
2.760870 -2.586957 -8.591305 185 167 124 
2.804348 -2.586957 -8.591305 178 158 114 
2.855586 -2.594005 -8.614715 171 152 107 
2.907104 -2.601093 -8.638251 165 146 102 
3.564356 -3.141914 -10.434323 177 158 115 
3.629139 -3.152318 -10.468875 198 179 139 
3.682119 -3.152318 -10.468875 197 181 142 
3.722772 -3.141914 -10.434323 198 185 148 
3.775578 -3.141914 -10.434323 213 201 167 
3.841060 -3.152318 -10.468875 175 162 130 
3.894040 -3.152318 -10.468875 156 140 108 
3.947020 -3.152318 -10.468875 172 153 119 
3.986799 -3.141914 -10.434323 168 148 113 
4.026316 -3.131579 -10.400001 163 141 105 
6.091228 -3.340351 -11.093333 105 84 69 
6.125874 -3.328671 -11.054545 98 81 69 
6.138889 -3.305556 -10.977778 89 75 65 
6.194445 -3.305556 -10.977778 78 68 59 
6.250000 -3.305556 -10.977778 62 56 48 
7.593750 -3.718750 -12.350000 42 37 36 
7.656250 -3.718750 -12.350000 38 32 32 
-1.328850 -0.650975 -2.126160 21 20 22 
-6.644068 -3.281356 -10.717288 17 17 19 
-7.343750 -3.781250 -12.350000 18 17 27 
-7.281250 -3.781250 -12.350000 20 18 27 
-7.218750 -3.781250 -12.350000 16 15 20 
-7.156250 -3.781250 -12.350000 20 20 21 
-7.093750 -3.781250 -12.350000 17 17 17 
-7.031250 -3.781250 -12.350000 19 19 19 
-6.968750 -3.781250 -12.350000 16 16 17 
-6.906250 -3.781250 -12.350000 15 15 17 
-6.234876 -3.444840 -11.251245 15 14 18 
-6.091228 -3.396491 -11.093333 19 18 23 
-5.993032 -3.372822 -11.016028 23 22 29 
-5.937282 -3.372822 -11.016028 25 25 31 
-5.881533 -3.372822 -11.016028 41 42 43 
-5.805555 -3.361111 -10.977778 52 53 50 
-1.377551 -1.234694 -4.032653 36 30 30 
-1.357143 -1.234694 -4.032653 32 27 30 
-1.335032 -1.233121 -4.027516 22 17 20 
-1.312977 -1.231552 -4.022392 16 14 15 
-1.292621 -1.231552 -4.022392 18 17 18 
-1.270648 -1.229987 -4.017281 19 18 21 
-0.940687 -1.007284 -3.289907 25 23 34 
-0.922118 -1.005192 -3.283074 26 24 35 
-0.898969 -0.997938 -3.259382 22 21 30 
-0.882474 -0.997938 -3.259382 21 20 27 
-0.766415 -1.041981 -3.403229 20 23 24 
-0.738070 -1.026511 -3.352704 37 28 27 
-0.728051 -1.036403 -3.385011 52 24 16 
-0.713978 -1.040860 -3.399570 100 51 31 
-0.810000 -1.210000 -3.952000 174 108 76 
-0.790000 -1.210000 -3.952000 195 124 85 
-0.768080 -1.206982 -3.942145 186 126 88 
-0.747198 -1.205480 -3.937236 220 181 145 
-0.726368 -1.203980 -3.932338 231 207 174 
-0.706468 -1.203980 -3.932338 230 209 176 
-0.145455 -0.838095 -2.737316 57 43 26 
-0.131716 -0.838821 -2.739688 121 106 78 
-0.117851 -0.838821 -2.739688 205 183 152 
-0.082671 -0.769475 -2.513196 109 93 77 
0.152249 -1.674740 -5.469896 228 222 193 
0.180556 -1.680556 -5.488889 235 221 174 
0.208333 -1.680556 -5.488889 227 191 125 
0.236111 -1.680556 -5.488889 204 138 59 
2.362573 -2.830409 -9.244445 187 157 116 
2.381503 -2.797688 -9.137572 190 164 124 
2.427746 -2.797688 -9.137572 188 165 122 
2.452722 -2.773639 -9.059026 197 174 131 
2.470255 -2.742210 -8.956374 197 176 136 
2.480447 -2.703911 -8.831285 198 178 142 
2.483516 -2.659341 -8.685715 208 189 156 
2.520548 -2.652055 -8.661918 207 191 158 
2.529730 -2.616216 -8.544865 206 192 157 
2.566038 -2.609164 -8.521833 200 187 151 
2.602150 -2.602150 -8.498925 203 192 155 
2.645161 -2.602150 -8.498925 200 189 150 
2.710027 -2.623306 -8.568022 198 184 143 
2.760870 -2.630435 -8.591305 189 172 128 
2.804348 -2.630435 -8.591305 194 176 130 
2.847826 -2.630435 -8.591305 184 166 120 
2.907104 -2.644809 -8.638251 174 157 112 
3.576159 -3.205298 -10.468875 184 168 124 
3.823729 -3.281356 -10.717288 219 206 174 
3.877966 -3.281356 -10.717288 228 218 188 
3.945578 -3.292517 -10.753742 213 203 175 
4.000000 -3.292517 -10.753742 202 189 160 
4.054422 -3.292517 -10.753742 210 193 161 
4.108843 -3.292517 -10.753742 202 181 148 
6.091228 -3.396491 -11.093333 70 56 49 
6.125874 -3.384615 -11.054545 59 47 40 
6.160279 -3.372822 -11.016028 66 57 49 
6.194445 -3.361111 -10.977778 50 43 34 
6.250000 -3.361111 -10.977778 40 35 26 
6.305555 -3.361111 -10.977778 40 35 28 
6.361111 -3.361111 -10.977778 34 29 25 
6.439024 -3.372822 -11.016028 45 40 36 
6.586573 -3.420495 -11.171732 61 56 52 
7.531250 -3.781250 -12.350000 33 29 27 
7.593750 -3.781250 -12.350000 31 27 26 
7.656250 -3.781250 -12.350000 26 21 21 
-1.328850 -0.661735 -2.126160 16 16 20 
-6.555184 -3.290970 -10.573914 16 16 21 
-6.589830 -3.335593 -10.717288 20 19 26 
-6.580205 -3.358362 -10.790444 18 16 26 
-7.281250 -3.843750 -12.350000 22 20 32 
-7.218750 -3.843750 -12.350000 20 19 26 
-7.156250 -3.843750 -12.350000 27 26 30 
-7.093750 -3.843750 -12.350000 27 27 29 
-7.031250 -3.843750 -12.350000 28 28 29 
-6.968750 -3.843750 -12.350000 20 19 21 
-6.212766 -3.489362 -11.211348 17 16 21 
-6.048780 -3.428571 -11.016028 18 17 23 
-5.993032 -3.428571 -11.016028 19 18 26 
-5.937282 -3.428571 -11.016028 28 27 33 
-5.881533 -3.428571 -11.016028 33 33 34 
-1.397959 -1.255102 -4.032653 58 52 49 
-1.377551 -1.255102 -4.032653 32 28 29 
-1.355414 -1.253503 -4.027516 28 24 29 
-1.333333 -1.251908 -4.022392 30 26 30 
-1.309645 -1.248731 -4.012183 19 17 20 
-1.289340 -1.248731 -4.012183 17 15 18 
-1.269036 -1.248731 -4.012183 20 19 23 
-0.890640 -0.969458 -3.114877 23 21 32 
-0.870588 -0.964706 -3.099608 24 22 33 
-0.852395 -0.961877 -3.090518 24 22 31 
-0.793028 -1.071895 -3.444009 24 21 30 
-0.771398 -1.066089 -3.425352 25 18 24 
-0.748387 -1.058064 -3.399570 44 16 17 
-0.812030 -1.233083 -3.961905 182 105 69 
-0.790000 -1.230000 -3.952000 192 121 85 
-0.770000 -1.230000 -3.952000 204 151 121 
-0.748130 -1.226933 -3.942145 233 201 173 
-0.727273 -1.225405 -3.937236 219 199 172 
-0.706468 -1.223881 -3.932338 206 186 153 
-0.688279 -1.226933 -3.942145 153 118 85 
-0.144578 -0.846816 -2.720826 60 40 26 
-0.130922 -0.847545 -2.723170 92 73 50 
-0.117140 -0.847545 -2.723170 203 178 149 
-0.103270 -0.846816 -2.720826 171 144 116 
-0.089347 -0.845361 -2.716151 115 94 73 
0.152513 -1.705373 -5.479376 222 219 192 
0.180556 -1.708333 -5.488889 229 220 174 
0.207972 -1.705373 -5.479376 227 200 132 
0.236111 -1.708333 -5.488889 206 155 67 
2.355685 -2.868805 -9.217493 192 172 128 
2.354286 -2.811429 -9.033143 198 181 136 
2.386364 -2.795455 -8.981818 194 176 129 
2.431818 -2.795455 -8.981818 191 172 125 
2.470255 -2.787535 -8.956374 203 185 141 
2.473538 -2.740947 -8.806685 186 167 128 
2.483516 -2.703297 -8.685715 184 165 128 
2.493225 -2.666667 -8.568022 214 195 159 
2.522911 -2.652291 -8.521833 213 195 158 
2.545455 -2.631016 -8.453476 220 202 165 
2.581333 -2.624000 -8.430934 215 200 162 
2.610080 -2.610080 -8.386208 188 174 136 
2.688172 -2.645161 -8.498925 195 179 138 
2.745946 -2.659459 -8.544865 193 174 132 
2.804348 -2.673913 -8.591305 192 173 130 
2.847826 -2.673913 -8.591305 202 185 141 
2.899183 -2.681199 -8.614715 202 186 144 
3.917808 -3.369863 -10.827397 219 208 183 
3.972603 -3.369863 -10.827397 219 207 183 
4.027397 -3.369863 -10.827397 210 196 170 
4.096220 -3.381443 -10.864605 209 189 162 
6.104529 -3.428571 -11.016028 39 30 27 
6.138889 -3.416667 -10.977778 45 39 33 
6.194445 -3.416667 -10.977778 36 31 24 
6.228374 -3.404844 -10.939793 32 29 21 
6.305555 -3.416667 -10.977778 42 38 32 
6.361111 -3.416667 -10.977778 56 52 48 
6.439024 -3.428571 -11.016028 71 66 63 
6.517482 -3.440559 -11.054545 65 60 57 
6.690392 -3.501779 -11.251245 46 42 40 
7.406250 -3.843750 -12.350000 66 63 61 
7.468750 -3.843750 -12.350000 48 46 44 
7.531250 -3.843750 -12.350000 26 24 22 
7.593750 -3.843750 -12.350000 30 29 28 
7.656250 -3.843750 -12.350000 24 22 22 
-1.328850 -0.672495 -2.126160 16 15 21 
-6.555184 -3.344482 -10.573914 16 15 22 
-6.545455 -3.367003 -10.645118 13 12 21 
-6.535593 -3.389831 -10.717288 15 13 24 
-6.525597 -3.412969 -10.790444 20 18 31 
-6.048780 -3.484321 -11.016028 17 16 22 
-5.972222 -3.472222 -10.977778 23 22 29 
-5.937282 -3.484321 -11.016028 30 29 34 
-1.377551 -1.275510 -4.032653 27 23 27 
-1.355414 -1.273885 -4.027516 22 19 24 
-1.331639 -1.270648 -4.017281 26 24 28 
-1.309645 -1.269036 -4.012183 18 16 20 
-1.289340 -1.269036 -4.012183 22 20 25 
-1.267427 -1.267427 -4.007098 22 20 26 
-1.250318 -1.270648 -4.017281 23 22 28 
-0.947162 -0.978474 -3.093542 17 16 23 
-0.931507 -0.978474 -3.093542 14 12 21 
-0.914062 -0.976562 -3.087500 21 20 30 
-0.898438 -0.976562 -3.087500 24 22 32 
-0.883675 -0.977517 -3.090518 27 25 36 
-0.868035 -0.977517 -3.090518 21 20 30 
-0.851562 -0.976562 -3.087500 26 25 34 
-0.836755 -0.977517 -3.090518 23 22 29 
-0.818482 -1.100110 -3.478108 19 18 24 
-0.793893 -1.090513 -3.447765 26 17 27 
-0.783278 -1.100110 -3.478108 34 14 24 
-0.832080 -1.253133 -3.961905 169 86 57 
-0.812030 -1.253133 -3.961905 181 98 62 
-0.790989 -1.251565 -3.956946 196 128 98 
-0.770964 -1.251565 -3.956946 206 160 139 
-0.750000 -1.250000 -3.952000 217 190 173 
-0.730000 -1.250000 -3.952000 222 205 184 
-0.708229 -1.246883 -3.942145 196 174 141 
-0.690864 -1.251565 -3.956946 161 125 90 
-0.158348 -0.860585 -2.720826 99 65 55 
-0.144578 -0.860585 -2.720826 78 52 42 
-0.130809 -0.860585 -2.720826 75 50 32 
-0.117040 -0.860585 -2.720826 183 155 129 
-0.103093 -0.859107 -2.716151 202 172 143 
-0.089270 -0.858369 -2.713820 144 119 93 
-0.075536 -0.858369 -2.713820 107 87 70 
0.208333 -1.736111 -5.488889 225 207 141 
0.236111 -1.736111 -5.488889 214 178 92 
2.361032 -2.865330 -9.059026 197 177 133 
2.386364 -2.840909 -8.981818 188 168 121 
2.431818 -2.840909 -8.981818 179 158 110 
2.470255 -2.832861 -8.956374 172 151 106 
2.473538 -2.785515 -8.806685 182 161 119 
2.476712 -2.739726 -8.661918 193 171 131 
2.486486 -2.702703 -8.544865 208 187 147 
2.502674 -2.673797 -8.453476 208 187 148 
2.538667 -2.666667 -8.430934 222 202 162 
2.554090 -2.638522 -8.341952 214 196 158 
2.589474 -2.631579 -8.320001 186 169 131 
2.638522 -2.638522 -8.341952 186 168 128 
2.723861 -2.680965 -8.476140 183 164 123 
2.789189 -2.702703 -8.544865 184 166 125 
2.847826 -2.717391 -8.591305 202 186 145 
2.899183 -2.724796 -8.614715 227 212 172 
4.041237 -3.436426 -10.864605 197 179 158 
6.083333 -3.472222 -10.977778 50 45 44 
6.138889 -3.472222 -10.977778 41 38 35 
6.194445 -3.472222 -10.977778 29 27 22 
6.228374 -3.460208 -10.939793 24 22 17 
6.305555 -3.472222 -10.977778 33 31 27 
6.361111 -3.472222 -10.977778 44 41 37 
6.439024 -3.484321 -11.016028 41 38 35 
6.540351 -3.508772 -11.093333 31 28 26 
6.690392 -3.558719 -11.251245 29 27 26 
6.894546 -3.636364 -11.496728 36 35 35 
7.161049 -3.745318 -11.841199 26 26 25 
7.531250 -3.906250 -12.350000 22 23 22 
7.593750 -3.906250 -12.350000 24 25 25 
7.656250 -3.906250 -12.350000 21 23 23 
-1.328850 -0.683255 -2.126160 14 13 19 
-6.555184 -3.397993 -10.573914 13 12 19 
-6.545455 -3.420875 -10.645118 12 11 21 
-6.535593 -3.444068 -10.717288 23 21 33 
-6.503401 -3.455782 -10.753742 20 18 32 
-6.493151 -3.479452 -10.827397 16 14 28 
-6.843750 -3.968750 -12.350000 21 20 25 
-6.091228 -3.564912 -11.093333 15 14 20 
-5.972222 -3.527778 -10.977778 21 19 26 
-1.377551 -1.295918 -4.032653 24 21 28 
-1.353690 -1.292621 -4.022392 19 17 24 
-1.331639 -1.290978 -4.017281 21 19 25 
-1.309645 -1.289340 -4.012183 19 17 22 
-1.290978 -1.290978 -4.017281 24 22 28 
-1.269036 -1.289340 -4.012183 21 20 27 
-0.962818 -0.994129 -3.093542 26 24 32 
-0.946237 -0.993157 -3.090518 15 13 23 
-0.929688 -0.992188 -3.087500 14 12 23 
-0.914062 -0.992188 -3.087500 20 18 30 
-0.898438 -0.992188 -3.087500 22 20 33 
-0.882812 -0.992188 -3.087500 20 18 30 
-0.867188 -0.992188 -3.087500 21 19 30 
-0.851562 -0.992188 -3.087500 22 20 29 
-0.835938 -0.992188 -3.087500 17 16 22 
-0.827586 -1.130145 -3.516797 21 19 22 
-0.800880 -1.117712 -3.478108 28 12 20 
-0.792873 -1.131403 -3.520713 50 17 28 
-0.789116 -1.151927 -3.584581 100 39 43 
-0.772727 -1.154545 -3.592727 144 65 53 
-0.832080 -1.273183 -3.961905 165 82 54 
-0.815094 -1.277987 -3.976856 172 94 62 
-0.794969 -1.277987 -3.976856 179 117 94 
-0.773869 -1.276382 -3.971859 183 142 129 
-0.752823 -1.274780 -3.966876 204 179 167 
-0.731830 -1.273183 -3.961905 222 205 184 
-0.711779 -1.273183 -3.961905 196 171 139 
-0.158212 -0.873603 -2.718487 118 80 68 
-0.144206 -0.872103 -2.713820 104 73 66 
-0.130472 -0.872103 -2.713820 77 47 36 
-0.116738 -0.872103 -2.713820 143 114 94 
-0.102916 -0.871355 -2.711492 213 184 154 
-0.089117 -0.870608 -2.709169 172 144 113 
-0.075407 -0.870608 -2.709169 130 105 83 
-0.061750 -0.871355 -2.711492 89 68 56 
2.477273 -2.886364 -8.981818 172 145 101 
2.473538 -2.830084 -8.806685 196 170 127 
2.456522 -2.760870 -8.591305 199 176 134 
2.486486 -2.745946 -8.544865 186 165 124 
2.496000 -2.709333 -8.430934 183 163 122 
2.511873 -2.680739 -8.341952 207 188 148 
2.534031 -2.659686 -8.276440 211 193 155 
2.569191 -2.652741 -8.254830 206 187 151 
2.617801 -2.659686 -8.276440 209 191 154 
2.694960 -2.694960 -8.386208 199 181 143 
2.789189 -2.745946 -8.544865 192 174 136 
2.855586 -2.768392 -8.614715 201 184 146 
6.125874 -3.552448 -11.054545 70 67 67 
6.138889 -3.527778 -10.977778 48 47 45 
6.194445 -3.527778 -10.977778 32 32 28 
6.250000 -3.527778 -10.977778 36 36 31 
6.305555 -3.527778 -10.977778 43 44 39 
6.361111 -3.527778 -10.977778 35 34 31 
6.439024 -3.540070 -11.016028 28 26 24 
6.563380 -3.577465 -11.132395 22 22 21 
6.738351 -3.641577 -11.331900 29 28 28 
6.894546 -3.694546 -11.496728 29 29 29 
7.081481 -3.762963 -11.709630 26 26 27 
7.531250 -3.968750 -12.350000 27 28 30 
7.593750 -3.968750 -12.350000 23 24 25 
7.656250 -3.968750 -12.350000 22 23 25 
-1.328850 -0.694015 -2.126160 26 25 31 
-6.599327 -3.474747 -10.645118 23 22 28 
-6.589830 -3.498305 -10.717288 20 19 27 
-6.557823 -3.510204 -10.753742 19 17 28 
-6.525597 -3.522184 -10.790444 10 8 21 
-6.470990 -3.522184 -10.790444 15 13 26 
-6.843750 -4.031250 -12.350000 15 14 19 
-1.377551 -1.316326 -4.032653 21 18 27 
-1.353690 -1.312977 -4.022392 18 17 25 
-1.333333 -1.312977 -4.022392 19 18 25 
-1.311309 -1.311309 -4.017281 22 21 27 
-1.292621 -1.312977 -4.022392 22 21 28 
-1.269036 -1.309645 -4.012183 21 20 27 
-0.960938 -1.007812 -3.087500 27 26 35 
-0.945312 -1.007812 -3.087500 18 16 28 
-0.929688 -1.007812 -3.087500 18 16 29 
-0.914062 -1.007812 -3.087500 22 20 33 
-0.898438 -1.007812 -3.087500 18 16 29 
-0.881951 -1.006829 -3.084488 15 13 26 
-0.867188 -1.007812 -3.087500 17 15 27 
-0.851562 -1.007812 -3.087500 19 18 27 
-0.835938 -1.007812 -3.087500 14 13 20 
-0.820312 -1.007812 -3.087500 17 16 21 
-0.848214 -1.151786 -3.528572 24 27 24 
-0.828508 -1.149220 -3.520713 20 14 14 
-0.810690 -1.149220 -3.520713 37 15 19 
-0.792873 -1.149220 -3.520713 83 41 48 
-0.783784 -1.162162 -3.560360 126 64 66 
-0.769231 -1.167421 -3.576471 141 71 60 
-0.753689 -1.171396 -3.588649 143 75 53 
-0.774843 -1.298113 -3.976856 149 108 98 
-0.753769 -1.296482 -3.971859 193 163 150 
-0.732748 -1.294856 -3.966876 212 189 166 
-0.711779 -1.293233 -3.961905 168 139 106 
-0.691729 -1.293233 -3.961905 133 92 60 
-0.157940 -0.885837 -2.713820 119 78 63 
-0.143836 -0.883562 -2.706849 117 82 77 
-0.130137 -0.883562 -2.706849 88 58 54 
-0.116438 -0.883562 -2.706849 95 71 57 
-0.102740 -0.883562 -2.706849 198 174 145 
-0.089041 -0.883562 -2.706849 191 161 127 
-0.075342 -0.883562 -2.706849 149 119 91 
-0.061644 -0.883562 -2.706849 101 78 61 
-0.047945 -0.883562 -2.706849 77 58 46 
0.251121 -1.542601 -4.725860 232 204 133 
2.428969 -2.874652 -8.806685 185 156 115 
2.413043 -2.804348 -8.591305 189 164 122 
2.443243 -2.789189 -8.544865 191 169 127 
2.473118 -2.774194 -8.498925 177 158 116 
2.482759 -2.737401 -8.386208 174 157 117 
2.492146 -2.701571 -8.276440 202 186 148 
2.520833 -2.687500 -8.233334 210 194 160 
2.555844 -2.680520 -8.211948 217 199 167 
2.597403 -2.680520 -8.211948 225 207 175 
2.659686 -2.701571 -8.276440 220 202 167 
2.804348 -2.804348 -8.591305 196 177 142 
6.181818 -3.608392 -11.054545 55 54 52 
6.216028 -3.595819 -11.016028 32 32 28 
6.271777 -3.595819 -11.016028 33 34 30 
6.327526 -3.595819 -11.016028 45 47 44 
6.383275 -3.595819 -11.016028 32 32 31 
6.507042 -3.633803 -11.132395 17 17 17 
6.633452 -3.672598 -11.251245 16 16 17 
6.811594 -3.739130 -11.455072 25 25 26 
6.945055 -3.780220 -11.580953 18 18 20 
7.081481 -3.822222 -11.709630 15 15 17 
7.531250 -4.031250 -12.350000 18 18 21 
7.593750 -4.031250 -12.350000 23 22 27 
7.656250 -4.031250 -12.350000 25 24 29 
-1.328850 -0.704775 -2.126160 32 32 35 
-6.644068 -3.552542 -10.717288 24 23 27 
-6.612245 -3.564626 -10.753742 20 19 25 
-6.580205 -3.576792 -10.790444 11 10 18 
-6.525597 -3.576792 -10.790444 6 4 14 
-6.493151 -3.589041 -10.827397 13 11 23 
-7.156250 -4.093750 -12.350000 21 21 24 
-6.843750 -4.093750 -12.350000 24 23 27 
-1.377551 -1.336735 -4.032653 17 15 26 
-1.353690 -1.333333 -4.022392 20 19 28 
-1.333333 -1.333333 -4.022392 13 12 20 
-1.311309 -1.331639 -4.017281 18 17 24 
-1.292621 -1.333333 -4.022392 20 19 27 
-1.269036 -1.329949 -4.012183 21 19 29 
-0.960938 -1.023438 -3.087500 23 21 32 
-0.945312 -1.023438 -3.087500 16 14 27 
-0.929688 -1.023438 -3.087500 12 10 24 
-0.914062 -1.023438 -3.087500 20 18 31 
-0.896686 -1.021443 -3.081482 14 12 26 
-0.881092 -1.021443 -3.081482 19 17 30 
-0.867188 -1.023438 -3.087500 23 21 33 
-0.852395 -1.024438 -3.090518 22 20 29 
-0.902519 -1.147864 -3.462870 16 15 21 
-0.885965 -1.149123 -3.466667 20 18 23 
-0.880000 -1.164444 -3.512889 22 18 21 
-0.866071 -1.169643 -3.528572 28 27 27 
-0.848214 -1.169643 -3.528572 26 25 24 
-0.830357 -1.169643 -3.528572 37 28 27 
-0.811594 -1.168339 -3.524638 68 41 40 
-0.793757 -1.168339 -3.524638 106 60 60 
-0.778524 -1.172259 -3.536465 123 68 66 
-0.766629 -1.181511 -3.564374 114 63 56 
-0.751131 -1.185520 -3.576471 99 55 43 
-0.775819 -1.319899 -3.981864 135 90 81 
-0.753769 -1.316583 -3.971859 167 129 112 
-0.732748 -1.314931 -3.966876 191 160 134 
-0.711779 -1.313283 -3.961905 147 113 82 
-0.690864 -1.311640 -3.956946 144 100 72 
-0.157804 -0.898799 -2.711492 107 64 47 
-0.143836 -0.897260 -2.706849 106 70 65 
-0.130137 -0.897260 -2.706849 92 63 64 
-0.116438 -0.897260 -2.706849 66 48 39 
-0.102740 -0.897260 -2.706849 154 136 110 
-0.089041 -0.897260 -2.706849 202 173 137 
-0.075342 -0.897260 -2.706849 163 131 99 
-0.047863 -0.895727 -2.702222 83 64 51 
-0.028110 -0.736472 -2.221785 85 70 64 
0.227205 -1.566517 -4.725860 224 202 142 
0.250000 -1.559524 -4.704762 223 198 139 
0.271787 -1.548006 -4.670015 215 188 134 
0.292826 -1.534407 -4.628990 196 166 118 
2.369565 -2.847826 -8.591305 182 161 121 
2.400000 -2.832433 -8.544865 179 160 118 
2.436658 -2.824798 -8.521833 187 169 127 
2.466488 -2.809651 -8.476140 205 190 149 
2.476191 -2.772487 -8.364021 192 178 140 
2.485640 -2.736292 -8.254830 200 185 151 
2.514286 -2.722078 -8.211948 219 204 174 
2.555844 -2.722078 -8.211948 219 204 175 
2.590674 -2.715026 -8.190674 221 205 175 
2.638961 -2.722078 -8.211948 215 198 167 
6.336917 -3.756272 -11.331900 35 33 31 
6.303887 -3.703180 -11.171732 32 32 28 
6.360424 -3.703180 -11.171732 27 28 25 
6.416961 -3.703180 -11.171732 24 26 24 
6.473498 -3.703180 -11.171732 20 21 22 
6.576512 -3.729537 -11.251245 13 14 15 
6.729242 -3.783393 -11.413719 14 14 16 
6.861314 -3.824817 -11.538687 21 20 24 
6.970588 -3.852941 -11.623529 14 13 17 
7.081481 -3.881481 -11.709630 16 15 19 
7.194030 -3.910448 -11.797015 21 19 24 
7.593750 -4.093750 -12.350000 15 12 18 
7.656250 -4.093750 -12.350000 18 15 21 
-1.328850 -0.715535 -2.126160 31 30 32 
-6.666667 -3.619048 -10.753742 21 21 22 
-6.634812 -3.631399 -10.790444 22 21 26 
-6.602740 -3.643836 -10.827397 16 15 21 
-6.525597 -3.631399 -10.790444 15 14 21 
-6.470990 -3.631399 -10.790444 19 17 26 
-6.482759 -3.668966 -10.902069 12 11 19 
-6.494773 -3.707317 -11.016028 15 14 22 
-6.439024 -3.707317 -11.016028 22 21 25 
-6.405594 -3.720280 -11.054545 21 21 22 
-7.093750 -4.156250 -12.350000 22 22 21 
-1.353690 -1.353690 -4.022392 23 22 32 
-1.333333 -1.353690 -4.022392 11 10 18 
-1.312977 -1.353690 -4.022392 18 17 25 
-1.292621 -1.353690 -4.022392 23 22 30 
-1.269036 -1.350254 -4.012183 23 22 32 
-0.962818 -1.041096 -3.093542 23 21 33 
-0.945312 -1.039062 -3.087500 15 13 26 
-0.929688 -1.039062 -3.087500 8 6 18 
-0.914062 -1.039062 -3.087500 15 13 26 
-0.898438 -1.039062 -3.087500 17 15 29 
-0.881951 -1.038049 -3.084488 20 18 31 
-0.904501 -1.167947 -3.470472 18 18 24 
-0.886937 -1.167947 -3.470472 25 23 29 
-0.878049 -1.179601 -3.505100 23 17 23 
-0.862222 -1.182222 -3.512889 24 18 23 
-0.848214 -1.187500 -3.528572 25 20 22 
-0.830357 -1.187500 -3.528572 49 36 36 
-0.812500 -1.187500 -3.528572 90 60 57 
-0.794643 -1.187500 -3.528572 105 60 55 
-0.778524 -1.190157 -3.536465 100 55 49 
-0.765766 -1.198198 -3.560360 87 52 45 
-0.749436 -1.200903 -3.568397 73 46 39 
-0.734694 -1.206349 -3.584581 70 41 36 
-0.754717 -1.338365 -3.976856 145 102 81 
-0.732748 -1.335006 -3.966876 134 98 70 
-0.710889 -1.331665 -3.956946 124 88 59 
-0.690000 -1.330000 -3.952000 162 116 92 
-0.670000 -1.330000 -3.952000 159 116 99 
-0.144082 -0.912521 -2.711492 95 57 51 
-0.130360 -0.912521 -2.711492 86 58 61 
-0.116638 -0.912521 -2.711492 56 41 36 
-0.102740 -0.910959 -2.706849 99 85 63 
-0.089041 -0.910959 -2.706849 197 171 137 
-0.039353 -0.747716 -2.221785 94 70 55 
-0.028090 -0.747191 -2.220225 82 67 61 
-0.016866 -0.747716 -2.221785 58 55 51 
0.228228 -1.597598 -4.747147 197 175 120 
0.250000 -1.583333 -4.704762 181 155 100 
0.272189 -1.573964 -4.676923 165 134 85 
0.294551 -1.567010 -4.656260 165 127 81 
2.326087 -2.891304 -8.591305 211 199 163 
2.356757 -2.875676 -8.544865 199 187 149 
2.393531 -2.867924 -8.521833 203 191 151 
2.436658 -2.867924 -8.521833 207 195 155 
2.466488 -2.852547 -8.476140 221 209 172 
2.476191 -2.814815 -8.364021 213 200 166 
2.485640 -2.778068 -8.254830 202 188 157 
2.514286 -2.763636 -8.211948 214 199 172 
2.555844 -2.763636 -8.211948 208 193 167 
2.590674 -2.756477 -8.190674 198 182 154 
2.638961 -2.763636 -8.211948 188 171 140 
6.501873 -3.985019 -11.841199 29 23 23 
6.561798 -3.985019 -11.841199 21 16 15 
6.429091 -3.869091 -11.496728 24 21 19 
6.394265 -3.813620 -11.331900 23 24 20 
6.382979 -3.773050 -11.211348 21 22 19 
6.439716 -3.773050 -11.211348 17 19 18 
6.566308 -3.813620 -11.331900 18 19 21 
6.695652 -3.855072 -11.455072 14 15 18 
6.802920 -3.883212 -11.538687 12 11 15 
6.911765 -3.911765 -11.623529 13 12 16 
6.970588 -3.911765 -11.623529 16 15 20 
7.081481 -3.940741 -11.709630 21 18 23 
7.194030 -3.970149 -11.797015 20 16 22 
7.308270 -4.000000 -11.885715 18 13 20 
7.656250 -4.156250 -12.350000 24 19 26 
-1.328850 -0.726295 -2.126160 23 22 27 
-6.689420 -3.686007 -10.790444 19 18 22 
-6.703448 -3.724138 -10.902069 20 19 25 
-6.625430 -3.711340 -10.864605 19 18 23 
-6.547945 -3.698630 -10.827397 21 20 25 
-6.470990 -3.686007 -10.790444 20 19 25 
-6.416382 -3.686007 -10.790444 18 17 23 
-6.427586 -3.724138 -10.902069 16 15 20 
-6.416667 -3.750000 -10.977778 15 15 19 
-6.361111 -3.750000 -10.977778 20 20 23 
-6.305555 -3.750000 -10.977778 24 23 25 
-6.741573 -4.044944 -11.841199 18 16 17 
-1.355414 -1.375796 -4.027516 24 23 30 
-1.335032 -1.375796 -4.027516 18 17 25 
-1.312977 -1.374046 -4.022392 14 13 21 
-1.292621 -1.374046 -4.022392 16 15 23 
-1.270648 -1.372300 -4.017281 24 23 32 
-1.248731 -1.370558 -4.012183 21 20 29 
-0.947162 -1.056751 -3.093542 17 16 24 
-0.931507 -1.056751 -3.093542 18 17 23 
-0.915851 -1.056751 -3.093542 20 19 27 
-0.906491 -1.188119 -3.478108 18 18 21 
-0.887912 -1.186813 -3.474286 21 21 25 
-0.871287 -1.188119 -3.478108 20 18 23 
-0.861265 -1.198668 -3.508990 22 18 23 
-0.848214 -1.205357 -3.528572 37 30 32 
-0.830357 -1.205357 -3.528572 68 52 52 
-0.812500 -1.205357 -3.528572 86 59 55 
-0.795531 -1.206704 -3.532514 84 47 41 
-0.778524 -1.208054 -3.536465 81 41 31 
-0.766629 -1.217587 -3.564374 77 38 27 
-0.749436 -1.218962 -3.568397 82 44 32 
-0.733032 -1.221720 -3.576471 102 63 51 
-0.735516 -1.360201 -3.981864 97 62 40 
-0.713568 -1.356784 -3.971859 112 74 51 
-0.690864 -1.351690 -3.956946 171 122 101 
-0.039353 -0.758960 -2.221785 109 73 55 
-0.028110 -0.758960 -2.221785 87 67 56 
0.230303 -1.636364 -4.790303 177 145 98 
0.252252 -1.621622 -4.747147 169 136 89 
0.275862 -1.619190 -4.740030 169 134 88 
0.701754 -3.789474 -11.093333 178 137 92 
1.564103 -3.461539 -10.133333 166 134 93 
1.594937 -3.417722 -10.005064 185 154 118 
1.630094 -3.385580 -9.910972 196 168 138 
2.326087 -2.934783 -8.591305 214 206 174 
2.369565 -2.934783 -8.591305 210 202 169 
2.400000 -2.918919 -8.544865 214 206 173 
2.436658 -2.911051 -8.521833 223 214 182 
2.466488 -2.895442 -8.476140 220 210 179 
2.482759 -2.864722 -8.386208 204 191 163 
2.498688 -2.834646 -8.298163 201 186 159 
2.520833 -2.812500 -8.233334 203 187 159 
2.562500 -2.812500 -8.233334 200 183 154 
2.597403 -2.805195 -8.211948 194 175 143 
2.645833 -2.812500 -8.233334 184 161 127 
0.473768 -0.429253 -1.256598 160 124 100 
0.478795 -0.428062 -1.253111 150 112 88 
0.484177 -0.427215 -1.250633 138 102 75 
0.489925 -0.426709 -1.249151 149 116 89 
0.493711 -0.424528 -1.242767 165 135 110 
0.500000 -0.424528 -1.242767 148 120 98 
0.506289 -0.424528 -1.242767 143 118 96 
0.512579 -0.424528 -1.242767 107 83 62 
0.518868 -0.424528 -1.242767 109 86 65 
0.525157 -0.424528 -1.242767 108 84 64 
0.531447 -0.424528 -1.242767 105 83 63 
0.537736 -0.424528 -1.242767 99 77 58 
6.781250 -4.218750 -12.350000 31 29 31 
6.561798 -4.044944 -11.841199 22 20 22 
6.523985 -3.985240 -11.666421 17 16 17 
6.487273 -3.927273 -11.496728 16 16 15 
6.474820 -3.884892 -11.372663 22 22 21 
6.532374 -3.884892 -11.372663 26 27 27 
6.637681 -3.913043 -11.455072 23 23 25 
6.744525 -3.941606 -11.538687 20 20 24 
6.852941 -3.970588 -11.623529 21 21 24 
6.911765 -3.970588 -11.623529 16 16 19 
6.996310 -3.985240 -11.666421 18 17 22 
7.134328 -4.029851 -11.797015 18 17 22 
7.248120 -4.060150 -11.885715 11 9 15 
7.308270 -4.060150 -11.885715 15 12 18 
7.656250 -4.218750 -12.350000 19 16 22 
-1.328850 -0.737054 -2.126160 25 24 30 
-6.758621 -3.779310 -10.902069 17 16 22 
-6.726644 -3.792387 -10.939793 14 13 19 
-6.648276 -3.779310 -10.902069 20 19 25 
-6.570447 -3.766323 -10.864605 21 20 25 
-6.470990 -3.740614 -10.790444 22 22 27 
-6.394558 -3.727891 -10.753742 20 19 24 
-6.340136 -3.727891 -10.753742 21 20 25 
-6.350515 -3.766323 -10.864605 17 17 22 
-6.295533 -3.766323 -10.864605 25 25 29 
-6.283737 -3.792387 -10.939793 30 29 32 
-6.228374 -3.792387 -10.939793 23 21 23 
-1.607143 -1.630952 -4.704762 13 12 17 
-1.357143 -1.397959 -4.032653 19 18 24 
-1.335032 -1.396178 -4.027516 20 19 26 
-1.312977 -1.394402 -4.022392 15 14 22 
-1.290978 -1.392630 -4.017281 14 13 21 
-1.270648 -1.392630 -4.017281 25 24 32 
-1.250318 -1.392630 -4.017281 20 19 25 
-0.935167 -1.076621 -3.105698 26 26 28 
-0.781690 -0.964789 -2.783099 23 18 31 
-0.906491 -1.205721 -3.478108 20 20 20 
-0.888889 -1.205721 -3.478108 22 22 23 
-0.875138 -1.211050 -3.493481 21 20 23 
-0.862222 -1.217778 -3.512889 31 27 29 
-0.848214 -1.223214 -3.528572 51 38 38 
-0.831285 -1.224581 -3.532514 74 49 45 
-0.813408 -1.224581 -3.532514 80 41 31 
-0.796421 -1.225951 -3.536465 90 42 27 
-0.780269 -1.228700 -3.544395 107 54 34 
-0.766629 -1.235626 -3.564374 111 54 34 
-0.751131 -1.239819 -3.576471 119 63 43 
-0.733862 -1.241223 -3.580521 154 103 85 
-0.715365 -1.380353 -3.981864 121 82 63 
-0.693467 -1.376884 -3.971859 172 116 95 
0.221138 -1.782114 -5.140813 175 135 95 
0.233129 -1.680982 -4.849080 176 139 96 
0.254545 -1.660606 -4.790303 185 150 106 
0.669091 -3.985455 -11.496728 186 150 106 
0.727273 -3.985455 -11.496728 186 146 101 
0.785455 -3.985455 -11.496728 186 143 99 
0.840580 -3.971014 -11.455072 183 141 97 
1.437909 -3.581699 -10.332026 202 176 128 
1.475728 -3.546926 -10.231715 192 163 117 
1.517685 -3.524116 -10.165916 187 156 112 
1.554140 -3.490446 -10.068790 187 157 116 
1.579937 -3.435737 -9.910972 193 164 127 
1.614907 -3.403727 -9.818634 193 164 131 
1.654321 -3.382716 -9.758025 192 164 135 
1.708978 -3.393189 -9.788236 156 129 102 
1.763975 -3.403727 -9.818634 82 55 30 
1.813665 -3.403727 -9.818634 94 71 43 
1.869159 -3.414330 -9.849221 176 155 120 
2.369565 -2.978261 -8.591305 217 208 178 
2.413043 -2.978261 -8.591305 215 205 176 
2.443243 -2.962162 -8.544865 221 209 181 
2.473118 -2.946237 -8.498925 213 199 172 
2.482759 -2.907162 -8.386208 201 185 158 
2.498688 -2.876640 -8.298163 198 179 153 
2.520833 -2.854167 -8.233334 186 165 136 
2.562500 -2.854167 -8.233334 196 173 142 
2.604167 -2.854167 -8.233334 188 163 129 
0.467594 -0.435785 -1.257097 135 103 78 
0.472641 -0.434576 -1.253608 129 93 69 
0.477848 -0.433544 -1.250633 143 105 80 
0.483794 -0.433202 -1.249644 146 111 84 
0.487421 -0.430818 -1.242767 145 113 86 
0.493711 -0.430818 -1.242767 161 132 107 
0.500000 -0.430818 -1.242767 125 98 75 
0.506289 -0.430818 -1.242767 130 105 83 
0.512579 -0.430818 -1.242767 98 74 53 
0.518868 -0.430818 -1.242767 98 74 52 
0.525157 -0.430818 -1.242767 91 67 45 
0.531447 -0.430818 -1.242767 95 73 50 
0.537736 -0.430818 -1.242767 96 75 54 
0.544025 -0.430818 -1.242767 89 71 52 
6.656250 -4.281250 -12.350000 19 19 21 
6.718750 -4.281250 -12.350000 23 23 26 
6.781250 -4.281250 -12.350000 21 20 24 
6.843750 -4.281250 -12.350000 23 22 27 
6.621723 -4.104869 -11.841199 21 20 24 
6.583026 -4.044281 -11.666421 18 18 20 
6.617647 -4.029412 -11.623529 20 20 21 
6.676471 -4.029412 -11.623529 23 23 24 
6.760148 -4.044281 -11.666421 22 22 25 
6.844444 -4.059259 -11.709630 23 23 26 
6.929368 -4.074349 -11.753160 28 27 29 
6.988848 -4.074349 -11.753160 25 25 26 
7.127820 -4.120301 -11.885715 21 21 25 
7.187970 -4.120301 -11.885715 18 17 23 
7.531250 -4.281250 -12.350000 14 13 18 
7.593750 -4.281250 -12.350000 19 18 24 
7.656250 -4.281250 -12.350000 20 19 25 
-1.328850 -0.747814 -2.126160 22 21 27 
-6.782007 -3.847751 -10.939793 18 17 23 
-6.726644 -3.847751 -10.939793 11 10 16 
-6.625430 -3.821306 -10.864605 13 12 18 
-6.547945 -3.808219 -10.827397 21 20 25 
-6.427119 -3.769491 -10.717288 27 26 31 
-6.351351 -3.756757 -10.681082 21 20 25 
-6.255033 -3.731544 -10.609396 19 18 23 
-6.264407 -3.769491 -10.717288 20 20 25 
-6.210169 -3.769491 -10.717288 23 23 27 
-6.240550 -3.821306 -10.864605 28 26 30 
-6.206897 -3.834483 -10.902069 26 24 26 
-6.194445 -3.861111 -10.977778 17 14 17 
-1.607143 -1.654762 -4.704762 18 17 22 
-1.357143 -1.418367 -4.032653 16 15 21 
-1.335032 -1.416561 -4.027516 16 15 22 
-1.312977 -1.414758 -4.022392 23 22 30 
-1.290978 -1.412961 -4.017281 25 24 32 
-1.270648 -1.412961 -4.017281 25 24 31 
-0.795775 -0.978873 -2.783099 30 26 37 
-0.781690 -0.978873 -2.783099 24 19 31 
-0.767606 -0.978873 -2.783099 24 20 29 
-0.943771 -1.226020 -3.485777 20 17 23 
-0.926130 -1.226020 -3.485777 23 21 24 
-0.906491 -1.223322 -3.478108 25 23 21 
-0.888889 -1.223322 -3.478108 25 22 20 
-0.876106 -1.230088 -3.497345 30 23 23 
-0.862222 -1.235556 -3.512889 35 21 20 
-0.847269 -1.239688 -3.524638 56 30 24 
-0.832215 -1.243848 -3.536465 80 36 22 
-0.815230 -1.245241 -3.540426 111 51 27 
-0.797312 -1.245241 -3.540426 141 69 37 
-0.780269 -1.246637 -3.544395 154 81 48 
-0.764904 -1.250844 -3.556355 163 92 62 
-0.751131 -1.257919 -3.576471 160 95 69 
-0.658399 -1.253664 -3.564374 64 43 34 
-0.640361 -1.253664 -3.564374 118 74 56 
-0.621622 -1.252252 -3.560360 164 99 74 
-0.602925 -1.250844 -3.556355 181 112 86 
-0.584927 -1.250844 -3.556355 147 97 76 
-0.566929 -1.250844 -3.556355 84 58 49 
0.196721 -1.822951 -5.182951 179 137 99 
0.221138 -1.808130 -5.140813 180 141 101 
0.246353 -1.802269 -5.124149 181 146 103 
0.732601 -4.073260 -11.580953 197 160 115 
0.785455 -4.043636 -11.496728 192 154 109 
0.840580 -4.028986 -11.455072 196 158 113 
0.911765 -4.088235 -11.623529 195 160 115 
0.960000 -4.043636 -11.496728 194 159 114 
1.029412 -4.088235 -11.623529 203 170 124 
0.891304 -3.021739 -8.591305 178 146 101 
0.934783 -3.021739 -8.591305 193 162 116 
1.385621 -3.633987 -10.332026 199 176 130 
1.423948 -3.598706 -10.231715 198 173 128 
1.470968 -3.587097 -10.198710 196 169 124 
1.517685 -3.575563 -10.165916 196 168 125 
1.554140 -3.541401 -10.068790 199 172 131 
1.579937 -3.485893 -9.910972 197 170 131 
1.625000 -3.475000 -9.880000 187 160 124 
1.654321 -3.432099 -9.758025 186 160 125 
1.708978 -3.442724 -9.788236 177 152 119 
1.763975 -3.453416 -9.818634 119 94 63 
1.813665 -3.453416 -9.818634 106 83 49 
1.869159 -3.464175 -9.849221 169 149 111 
1.925000 -3.475000 -9.880000 203 184 145 
2.382514 -3.038251 -8.638251 215 200 169 
2.419619 -3.029973 -8.614715 209 193 163 
2.456522 -3.021739 -8.591305 211 193 163 
2.486486 -3.005405 -8.544865 197 176 147 
2.502674 -2.973262 -8.453476 187 163 135 
2.525199 -2.949602 -8.386208 179 152 124 
2.540682 -2.918635 -8.298163 180 152 121 
2.575916 -2.910995 -8.276440 175 145 113 
2.624672 -2.918635 -8.298163 157 127 91 
0.467594 -0.442147 -1.257097 124 90 64 
0.473204 -0.441445 -1.255101 116 80 54 
0.478795 -0.440745 -1.253111 133 96 71 
0.484177 -0.439873 -1.250633 140 106 80 
0.487421 -0.437107 -1.242767 132 100 75 
0.493711 -0.437107 -1.242767 131 100 74 
0.500000 -0.437107 -1.242767 109 79 53 
0.506289 -0.437107 -1.242767 118 89 64 
0.512579 -0.437107 -1.242767 113 86 62 
0.518868 -0.437107 -1.242767 107 82 59 
0.525157 -0.437107 -1.242767 87 64 43 
0.531447 -0.437107 -1.242767 92 72 51 
0.537736 -0.437107 -1.242767 102 84 65 
0.544025 -0.437107 -1.242767 94 78 61 
6.593750 -4.343750 -12.350000 22 22 23 
6.656250 -4.343750 -12.350000 16 16 18 
6.718750 -4.343750 -12.350000 15 15 18 
6.781250 -4.343750 -12.350000 16 15 21 
6.843750 -4.343750 -12.350000 25 24 30 
6.906250 -4.343750 -12.350000 27 26 31 
6.968750 -4.343750 -12.350000 23 22 25 
7.031250 -4.343750 -12.350000 22 22 23 
7.093750 -4.343750 -12.350000 17 17 18 
7.156250 -4.343750 -12.350000 22 22 24 
7.218750 -4.343750 -12.350000 21 21 23 
7.281250 -4.343750 -12.350000 20 20 21 
7.343750 -4.343750 -12.350000 22 22 23 
7.406250 -4.343750 -12.350000 24 23 27 
7.468750 -4.343750 -12.350000 17 16 21 
7.531250 -4.343750 -12.350000 19 18 24 
7.593750 -4.343750 -12.350000 25 24 30 
7.656250 -4.343750 -12.350000 23 22 28 
-1.328850 -0.758574 -2.126160 14 13 19 
-6.782007 -3.903114 -10.939793 20 19 25 
-6.726644 -3.903114 -10.939793 16 15 22 
-6.625430 -3.876289 -10.864605 12 11 19 
-6.525597 -3.849829 -10.790444 15 14 20 
-6.427119 -3.823729 -10.717288 21 20 26 
-6.308725 -3.785235 -10.609396 26 25 30 
-6.255033 -3.785235 -10.609396 19 18 23 
-6.222222 -3.797980 -10.645118 18 18 21 
-6.210169 -3.823729 -10.717288 20 20 23 
-6.197952 -3.849829 -10.790444 28 27 30 
-6.185567 -3.876289 -10.864605 27 25 29 
-6.194445 -3.916667 -10.977778 21 19 23 
-1.607143 -1.678571 -4.704762 23 21 26 
-1.357143 -1.438776 -4.032653 19 18 23 
-1.335032 -1.436943 -4.027516 18 17 23 
-1.312977 -1.435115 -4.022392 21 20 26 
-1.290978 -1.433291 -4.017281 21 20 27 
-1.270648 -1.433291 -4.017281 24 23 29 
-0.812721 -0.996466 -2.792933 21 19 26 
-0.795775 -0.992958 -2.783099 22 19 28 
-0.781690 -0.992958 -2.783099 23 19 29 
-0.767606 -0.992958 -2.783099 28 23 32 
-0.943771 -1.243660 -3.485777 27 23 30 
-0.926130 -1.243660 -3.485777 24 20 24 
-0.907489 -1.242291 -3.481938 27 23 21 
-0.889868 -1.242291 -3.481938 31 23 19 
-0.876106 -1.247788 -3.497345 42 26 20 
-0.862222 -1.253333 -3.512889 53 24 14 
-0.850112 -1.261745 -3.536465 85 41 24 
-0.833147 -1.263158 -3.540426 134 76 48 
-0.815230 -1.263158 -3.540426 173 101 63 
-0.797312 -1.263158 -3.540426 182 104 59 
-0.779395 -1.263158 -3.540426 181 106 65 
-0.763187 -1.265993 -3.548373 186 117 83 
-0.746907 -1.268841 -3.556355 178 121 94 
-0.676437 -1.271702 -3.564374 50 40 39 
-0.655443 -1.265993 -3.548373 72 52 48 
-0.636058 -1.263158 -3.540426 128 78 60 
-0.618141 -1.263158 -3.540426 147 72 44 
-0.600224 -1.263158 -3.540426 183 106 75 
-0.582307 -1.263158 -3.540426 154 98 70 
-0.564390 -1.263158 -3.540426 87 58 41 
-0.545861 -1.261745 -3.536465 120 105 95 
-0.526786 -1.258929 -3.528572 218 203 189 
0.196721 -1.849180 -5.182951 194 154 115 
0.221138 -1.834146 -5.140813 192 157 116 
0.247557 -1.837134 -5.149186 191 160 118 
0.732601 -4.131868 -11.580953 192 159 114 
0.791209 -4.131868 -11.580953 178 144 99 
0.891304 -3.065217 -8.591305 187 161 116 
0.934783 -3.065217 -8.591305 197 172 126 
0.978261 -3.065217 -8.591305 199 175 130 
1.018970 -3.056911 -8.568022 199 177 133 
1.385621 -3.686275 -10.332026 188 166 123 
1.423948 -3.650486 -10.231715 198 176 133 
1.475728 -3.650486 -10.231715 188 165 123 
1.522581 -3.638710 -10.198710 202 178 136 
1.569132 -3.627010 -10.165916 195 171 129 
1.605096 -3.592357 -10.068790 189 163 123 
1.630094 -3.536050 -9.910972 178 153 114 
1.680251 -3.536050 -9.910972 179 155 116 
1.730407 -3.536050 -9.910972 196 173 135 
1.797468 -3.569620 -10.005064 177 154 117 
1.848101 -3.569620 -10.005064 173 151 112 
1.941748 -3.650486 -10.231715 186 166 127 
2.432877 -3.090411 -8.661918 197 174 142 
2.463215 -3.073570 -8.614715 189 165 133 
2.500000 -3.065217 -8.591305 175 147 116 
2.536585 -3.056911 -8.568022 165 134 104 
2.545455 -3.016043 -8.453476 152 118 89 
2.567639 -2.992043 -8.386208 163 127 96 
2.610080 -2.992043 -8.386208 156 120 87 
2.673797 -3.016043 -8.453476 147 111 76 
0.468339 -0.449223 -1.259100 128 94 68 
0.473956 -0.448509 -1.257097 144 110 85 
0.479555 -0.447797 -1.255101 161 127 103 
0.485329 -0.447264 -1.253608 134 103 79 
0.490506 -0.446203 -1.250633 121 91 67 
0.493711 -0.443396 -1.242767 118 87 61 
0.500000 -0.443396 -1.242767 110 79 51 
0.506289 -0.443396 -1.242767 115 85 58 
0.512579 -0.443396 -1.242767 114 86 61 
0.518868 -0.443396 -1.242767 105 81 58 
0.525157 -0.443396 -1.242767 91 70 50 
0.531447 -0.443396 -1.242767 108 90 72 
0.537736 -0.443396 -1.242767 121 106 90 
0.544025 -0.443396 -1.242767 108 95 80 
0.607636 -0.458164 -1.284159 65 54 51 
0.616137 -0.459658 -1.288346 55 48 42 
0.622911 -0.459845 -1.288871 43 40 33 
0.629433 -0.459845 -1.288871 49 48 42 
0.635697 -0.459658 -1.288346 56 55 50 
0.641433 -0.459096 -1.286772 24 23 20 
0.647154 -0.458537 -1.285203 20 19 17 
6.531250 -4.406250 -12.350000 21 20 21 
6.593750 -4.406250 -12.350000 25 25 27 
6.656250 -4.406250 -12.350000 20 20 23 
6.718750 -4.406250 -12.350000 13 12 17 
6.781250 -4.406250 -12.350000 14 13 19 
6.843750 -4.406250 -12.350000 19 18 25 
6.906250 -4.406250 -12.350000 15 14 19 
6.968750 -4.406250 -12.350000 16 16 19 
7.031250 -4.406250 -12.350000 22 22 24 
7.093750 -4.406250 -12.350000 17 17 19 
7.156250 -4.406250 -12.350000 21 21 23 
7.218750 -4.406250 -12.350000 18 18 20 
7.281250 -4.406250 -12.350000 19 19 19 
7.343750 -4.406250 -12.350000 25 25 26 
7.406250 -4.406250 -12.350000 23 22 26 
7.468750 -4.406250 -12.350000 18 17 23 
7.531250 -4.406250 -12.350000 21 20 26 
7.593750 -4.406250 -12.350000 22 21 27 
7.656250 -4.406250 -12.350000 23 22 28 
-1.328850 -0.769334 -2.126160 14 13 19 
-6.758621 -3.944828 -10.902069 21 20 26 
-6.703448 -3.944828 -10.902069 19 18 26 
-6.602740 -3.917808 -10.827397 17 16 24 
-6.525597 -3.904437 -10.790444 12 11 19 
-6.427119 -3.877966 -10.717288 18 17 24 
-6.329967 -3.851852 -10.645118 18 17 22 
-6.255033 -3.838926 -10.609396 10 10 13 
-6.243243 -3.864865 -10.681082 14 14 14 
-6.252560 -3.904437 -10.790444 22 22 23 
-6.240550 -3.931272 -10.864605 27 26 29 
-6.250000 -3.972222 -10.977778 28 26 32 
-6.194445 -3.972222 -10.977778 27 25 31 
-6.138889 -3.972222 -10.977778 27 23 29 
-6.062284 -3.958477 -10.939793 19 13 19 
-6.027778 -3.972222 -10.977778 26 20 24 
-1.384615 -1.466667 -4.053333 25 24 29 
-1.357143 -1.459184 -4.032653 24 23 29 
-1.335032 -1.457325 -4.027516 25 24 30 
-1.312977 -1.455471 -4.022392 20 19 24 
-1.290978 -1.453621 -4.017281 20 19 24 
-1.270648 -1.453621 -4.017281 21 20 25 
-0.812721 -1.010601 -2.792933 15 14 20 
-0.795775 -1.007042 -2.783099 13 11 18 
-0.781690 -1.007042 -2.783099 18 15 22 
-0.767606 -1.007042 -2.783099 20 16 23 
-0.908490 -1.261301 -3.485777 27 21 23 
-0.890849 -1.261301 -3.485777 34 22 17 
-0.835017 -1.283951 -3.548373 195 135 96 
-0.817059 -1.283951 -3.548373 191 128 84 
-0.798206 -1.282511 -3.544395 185 124 80 
-0.779395 -1.281075 -3.540426 172 119 81 
-0.761478 -1.281075 -3.540426 156 111 81 
-0.743561 -1.281075 -3.540426 128 92 71 
-0.725644 -1.281075 -3.540426 80 58 47 
-0.707727 -1.281075 -3.540426 39 28 26 
-0.694476 -1.289741 -3.564374 34 29 30 
-0.673401 -1.283951 -3.548373 79 68 69 
-0.653244 -1.279642 -3.536465 94 69 65 
-0.633929 -1.276786 -3.528572 141 84 68 
-0.616071 -1.276786 -3.528572 150 69 42 
-0.598883 -1.278212 -3.532514 175 93 61 
-0.581656 -1.279642 -3.536465 155 96 66 
-0.563128 -1.278212 -3.532514 92 61 42 
-0.544643 -1.276786 -3.528572 110 93 82 
-0.526786 -1.276786 -3.528572 209 191 177 
-0.508929 -1.276786 -3.528572 229 211 183 
0.171334 -1.884679 -5.208567 187 149 109 
0.197044 -1.878489 -5.191462 195 158 120 
0.221498 -1.863192 -5.149186 195 163 124 
0.247557 -1.863192 -5.149186 189 163 121 
0.619926 -4.221402 -11.666421 190 165 122 
0.678967 -4.221402 -11.666421 189 164 120 
0.732601 -4.190476 -11.580953 176 147 103 
0.791209 -4.190476 -11.580953 161 131 87 
1.033210 -4.221402 -11.666421 188 165 120 
