ply
format ascii 1.0
element vertex 1218
property float x
property float y
property float z
property uchar red
property uchar green
property uchar blue
end_header
3.406250 7.656250 -12.350000 21 18 25 
3.468750 7.656250 -12.350000 28 25 33 
3.531250 7.656250 -12.350000 23 22 30 
3.593750 7.656250 -12.350000 20 19 26 
3.656250 7.656250 -12.350000 20 19 25 
3.718750 7.656250 -12.350000 18 17 22 
3.781250 7.656250 -12.350000 15 14 18 
3.843750 7.656250 -12.350000 18 17 21 
3.906250 7.656250 -12.350000 18 17 23 
3.968750 7.656250 -12.350000 18 17 25 
3.486486 6.621622 -10.681082 9 8 18 
3.576792 6.689420 -10.790444 19 17 28 
4.156250 7.656250 -12.350000 17 15 26 
4.468750 7.656250 -12.350000 10 7 17 
3.972603 6.712329 -10.827397 9 6 17 
4.027397 6.712329 -10.827397 8 6 16 
4.096220 6.735395 -10.864605 15 13 24 
4.843750 7.656250 -12.350000 26 27 29 
4.906250 7.656250 -12.350000 26 27 29 
4.968750 7.656250 -12.350000 20 20 23 
3.856287 5.868263 -9.465869 17 17 21 
3.904192 5.868263 -9.465869 22 21 26 
4.520548 6.712329 -10.827397 25 24 31 
5.343750 7.656250 -12.350000 20 18 29 
5.406250 7.656250 -12.350000 16 15 25 
4.320988 6.049383 -9.758025 19 18 27 
4.317073 5.975610 -9.639025 22 21 29 
4.313253 5.903615 -9.522892 19 18 25 
4.441718 6.012270 -9.698160 27 26 32 
4.490798 6.012270 -9.698160 20 19 25 
5.781250 7.656250 -12.350000 11 10 14 
5.843750 7.656250 -12.350000 10 10 12 
4.608955 5.850746 -9.437613 15 14 16 
4.548105 5.714286 -9.217493 21 19 22 
4.594752 5.714286 -9.217493 18 16 19 
6.218750 7.656250 -12.350000 16 14 17 
6.281250 7.656250 -12.350000 10 8 11 
6.343750 7.656250 -12.350000 14 12 16 
6.406250 7.656250 -12.350000 25 23 28 
6.225564 7.368421 -11.885715 20 17 23 
4.991045 5.850746 -9.437613 16 15 22 
5.038806 5.850746 -9.437613 16 15 24 
6.656250 7.656250 -12.350000 22 20 31 
6.048780 6.829268 -11.016028 18 17 25 
6.083333 6.805555 -10.977778 22 21 27 
6.096552 6.758621 -10.902069 14 13 16 
6.194445 6.805555 -10.977778 20 20 21 
7.156250 7.656250 -12.350000 14 13 18 
5.483679 5.816024 -9.381602 14 13 20 
5.531157 5.816024 -9.381602 16 15 24 
7.343750 7.656250 -12.350000 22 21 30 
7.406250 7.656250 -12.350000 21 20 26 
7.468750 7.656250 -12.350000 21 19 25 
5.789790 5.885886 -9.494294 16 14 19 
5.837838 5.885886 -9.494294 18 16 20 
5.885886 5.885886 -9.494294 21 19 22 
-5.880952 5.785714 -9.409524 18 17 25 
-5.833333 5.785714 -9.409524 14 13 21 
-5.751479 5.751479 -9.353847 25 23 34 
-5.687315 5.734513 -9.326254 20 18 29 
-5.724551 5.820359 -9.465869 16 15 25 
-5.728096 5.873112 -9.551661 20 20 26 
-7.343750 7.593750 -12.350000 22 21 24 
-5.788820 6.037267 -9.818634 20 20 20 
-5.500000 5.785714 -9.409524 22 22 23 
-5.452381 5.785714 -9.409524 11 11 15 
-5.453454 5.837838 -9.494294 16 15 21 
-5.405406 5.837838 -9.494294 22 20 29 
-5.389728 5.873112 -9.551661 25 22 33 
-5.473684 6.018576 -9.788236 21 18 31 
-5.424149 6.018576 -9.788236 16 13 26 
-5.374613 6.018576 -9.788236 21 18 29 
-5.149701 5.820359 -9.465869 23 21 27 
-5.101797 5.820359 -9.465869 17 15 19 
-5.023809 5.785714 -9.409524 16 14 19 
-4.976191 5.785714 -9.409524 18 16 21 
-4.943284 5.802985 -9.437613 26 25 30 
-4.898461 5.981538 -9.728001 18 18 22 
-4.775758 5.890909 -9.580606 19 18 25 
-4.698795 5.855422 -9.522892 25 24 32 
-4.595238 5.785714 -9.409524 20 19 29 
-4.547619 5.785714 -9.409524 16 14 25 
-3.837564 4.934010 -8.024365 22 20 31 
-3.740000 4.860000 -7.904000 23 21 32 
-3.718593 4.884422 -7.943719 26 25 34 
-4.344213 5.768546 -9.381602 21 19 29 
-4.142012 5.751479 -9.353847 14 13 20 
-4.082596 5.734513 -9.326254 7 7 12 
-4.047337 5.751479 -9.353847 14 13 19 
-4.000000 5.751479 -9.353847 19 18 23 
-3.988060 5.802985 -9.437613 15 14 17 
-3.928571 5.785714 -9.409524 11 11 13 
-3.892537 5.802985 -9.437613 18 17 22 
-3.833333 5.785714 -9.409524 15 14 21 
-3.797015 5.802985 -9.437613 13 12 20 
-3.738095 5.785714 -9.409524 19 18 26 
-3.636364 5.700880 -9.271555 23 22 30 
-2.632258 4.180645 -6.799140 20 19 27 
-2.592275 4.171674 -6.784550 25 24 32 
-3.547619 5.785714 -9.409524 25 24 32 
-3.479290 5.751479 -9.353847 16 16 24 
-3.431953 5.751479 -9.353847 15 14 22 
-3.384615 5.751479 -9.353847 16 16 22 
-3.337278 5.751479 -9.353847 21 21 26 
-3.299703 5.768546 -9.381602 23 24 29 
-3.233533 5.820359 -9.465869 11 12 16 
-3.166667 5.785714 -9.409524 16 17 22 
-3.109792 5.768546 -9.381602 13 13 20 
-3.062315 5.768546 -9.381602 16 16 25 
-2.877193 5.684210 -9.244445 16 14 25 
-2.426065 4.872180 -7.923810 16 14 25 
-2.380000 4.860000 -7.904000 18 16 27 
-2.666667 5.538462 -9.007408 17 15 26 
-2.595238 5.785714 -9.409524 14 13 18 
-2.502924 5.684210 -9.244445 15 15 18 
-1.806452 4.180645 -6.799140 11 11 12 
-2.327684 5.491526 -8.931074 19 19 19 
-2.335260 5.618497 -9.137572 23 23 25 
-2.357143 5.785714 -9.409524 22 21 25 
-2.309524 5.785714 -9.409524 21 20 26 
-2.261905 5.785714 -9.409524 20 19 26 
-2.201183 5.751479 -9.353847 13 13 20 
-2.373626 7.120879 -11.580953 42 41 39 
-2.315018 7.120879 -11.580953 48 45 38 
-2.215827 6.992806 -11.372663 64 54 45 
-1.785714 5.785714 -9.409524 83 65 55 
-1.732938 5.768546 -9.381602 107 83 72 
-1.655977 5.667638 -9.217493 134 101 84 
-1.637982 5.768546 -9.381602 129 91 69 
-1.495549 5.768546 -9.381602 135 100 74 
-1.439528 5.734513 -9.326254 121 93 70 
-1.360231 5.602305 -9.111239 101 81 60 
-1.314121 5.602305 -9.111239 83 69 51 
-1.305638 5.768546 -9.381602 77 68 53 
-1.258160 5.768546 -9.381602 71 65 54 
-1.203540 5.734513 -9.326254 51 48 40 
-1.146199 5.684210 -9.244445 34 33 32 
-1.119048 5.785714 -9.409524 26 26 31 
-1.071429 5.785714 -9.409524 22 21 28 
-1.023810 5.785714 -9.409524 16 15 19 
-0.699360 4.144989 -6.741152 23 22 21 
-0.566524 4.171674 -6.784550 17 18 21 
-0.533333 4.180645 -6.799140 12 13 13 
-0.483092 4.695652 -7.636715 20 14 18 
-0.391489 4.136170 -6.726809 24 17 23 
-0.357447 4.136170 -6.726809 23 13 22 
-0.325482 4.162741 -6.770021 22 14 24 
-0.291221 4.162741 -6.770021 16 11 22 
-0.224138 4.189655 -6.813793 24 26 31 
-0.085653 4.162741 -6.770021 47 20 20 
1.343750 7.593750 -12.350000 199 76 30 
1.468750 7.593750 -12.350000 202 67 31 
1.531250 7.593750 -12.350000 203 67 36 
1.593750 7.593750 -12.350000 192 60 33 
1.759036 5.855422 -9.522892 29 19 23 
1.812689 5.873112 -9.551661 31 28 32 
1.861027 5.873112 -9.551661 30 28 32 
2.468750 7.593750 -12.350000 26 26 30 
2.531250 7.593750 -12.350000 26 29 31 
2.593750 7.593750 -12.350000 21 24 27 
2.656250 7.593750 -12.350000 23 27 31 
2.718750 7.593750 -12.350000 22 26 29 
2.781250 7.593750 -12.350000 23 22 25 
2.425000 6.075000 -9.880000 25 21 28 
2.467290 6.056075 -9.849221 22 19 26 
2.501548 6.018576 -9.788236 16 13 20 
2.566978 6.056075 -9.849221 15 13 20 
2.886598 6.680412 -10.864605 13 10 18 
3.343750 7.593750 -12.350000 13 10 17 
3.593750 7.593750 -12.350000 24 23 29 
3.656250 7.593750 -12.350000 19 18 24 
3.718750 7.593750 -12.350000 19 18 24 
3.781250 7.593750 -12.350000 18 17 22 
3.843750 7.593750 -12.350000 14 13 18 
3.906250 7.593750 -12.350000 18 17 23 
3.225000 6.075000 -9.880000 13 11 21 
3.540540 6.567567 -10.681082 23 21 32 
3.631399 6.634812 -10.790444 23 21 32 
4.218750 7.593750 -12.350000 14 13 23 
4.028986 7.043478 -11.455072 13 12 20 
3.863014 6.657534 -10.827397 21 19 28 
3.666667 6.230769 -10.133333 20 17 28 
3.815789 6.394737 -10.400001 16 13 24 
3.868421 6.394737 -10.400001 19 16 27 
4.082192 6.657534 -10.827397 18 16 26 
4.380952 6.612245 -10.753742 21 21 25 
4.465754 6.657534 -10.827397 18 17 23 
4.520548 6.657534 -10.827397 21 20 28 
4.149068 6.037267 -9.818634 18 17 25 
4.035821 5.802985 -9.437613 17 16 27 
4.095809 5.820359 -9.465869 19 17 29 
4.365931 6.132492 -9.973502 18 16 26 
4.416404 6.132492 -9.973502 20 19 28 
4.466877 6.132492 -9.973502 19 18 26 
4.461059 6.056075 -9.849221 23 22 29 
4.716612 6.332248 -10.298371 26 25 31 
4.560748 6.056075 -9.849221 21 20 26 
4.730650 6.018576 -9.788236 13 13 15 
4.568048 5.751479 -9.353847 18 16 20 
4.601770 5.734513 -9.326254 21 19 24 
4.648968 5.734513 -9.326254 23 21 25 
6.406250 7.593750 -12.350000 19 16 22 
5.003021 5.873112 -9.551661 18 15 23 
4.991045 5.802985 -9.437613 14 12 22 
5.038806 5.802985 -9.437613 17 15 26 
6.048780 6.773519 -11.016028 17 16 23 
6.062284 6.726644 -10.939793 20 19 24 
6.096552 6.703448 -10.902069 19 19 22 
6.151724 6.703448 -10.902069 20 20 21 
5.625000 6.075000 -9.880000 21 21 23 
5.675000 6.075000 -9.880000 21 20 24 
5.452381 5.785714 -9.409524 16 16 21 
5.435294 5.717647 -9.298823 20 19 26 
5.482353 5.717647 -9.298823 22 20 31 
7.406250 7.593750 -12.350000 24 22 30 
5.883077 5.981538 -9.728001 20 18 25 
5.789790 5.837838 -9.494294 18 16 21 
5.837838 5.837838 -9.494294 23 21 26 
5.885886 5.837838 -9.494294 25 23 28 
-5.898508 5.755224 -9.437613 28 27 34 
-5.850746 5.755224 -9.437613 22 21 29 
-5.734513 5.687315 -9.326254 28 26 36 
-5.687315 5.687315 -9.326254 26 24 35 
-5.741742 5.789790 -9.494294 17 16 24 
-7.406250 7.531250 -12.350000 15 15 20 
-7.343750 7.531250 -12.350000 20 20 22 
-5.788820 5.987577 -9.818634 22 22 21 
-5.500000 5.738095 -9.409524 16 16 17 
-5.501502 5.789790 -9.494294 16 15 20 
-5.404762 5.738095 -9.409524 17 16 22 
-5.357143 5.738095 -9.409524 21 19 29 
-5.309524 5.738095 -9.409524 20 17 28 
-5.261905 5.738095 -9.409524 21 18 31 
-5.424149 5.969040 -9.788236 25 21 35 
-6.781250 7.531250 -12.350000 18 15 26 
-6.718750 7.531250 -12.350000 25 23 28 
-6.656250 7.531250 -12.350000 17 15 19 
-6.593750 7.531250 -12.350000 19 17 22 
-6.531250 7.531250 -12.350000 15 14 18 
-4.943284 5.755224 -9.437613 22 21 25 
-4.996923 5.932308 -9.728001 23 23 25 
-4.947692 5.932308 -9.728001 20 20 22 
-4.898461 5.932308 -9.728001 21 21 25 
-4.595238 5.738095 -9.409524 20 19 29 
-4.534125 5.721068 -9.381602 23 21 32 
-4.176795 5.325967 -8.733702 25 23 34 
-4.439169 5.721068 -9.381602 25 23 33 
-4.378698 5.704142 -9.353847 22 21 30 
-4.331361 5.704142 -9.353847 21 19 29 
-4.296736 5.721068 -9.381602 20 18 29 
-5.593750 7.531250 -12.350000 17 15 26 
-4.094675 5.704142 -9.353847 7 6 12 
-4.083582 5.755224 -9.437613 13 12 18 
-4.035821 5.755224 -9.437613 16 16 21 
-4.175000 6.025000 -9.880000 12 12 14 
-4.125000 6.025000 -9.880000 7 7 10 
-3.738095 5.738095 -9.409524 12 11 19 
-3.636364 5.653959 -9.271555 17 16 24 
-3.589443 5.653959 -9.271555 24 23 31 
-3.402817 5.430986 -8.905916 23 22 30 
-3.265754 5.282192 -8.661918 15 14 22 
-3.479290 5.704142 -9.353847 9 8 16 
-4.531250 7.531250 -12.350000 7 6 14 
-4.468750 7.531250 -12.350000 13 13 19 
-3.347181 5.721068 -9.381602 18 19 24 
-3.289941 5.704142 -9.353847 21 22 27 
-3.252226 5.721068 -9.381602 21 22 27 
-3.214286 5.738095 -9.409524 13 14 18 
-3.166667 5.738095 -9.409524 17 17 22 
-3.119048 5.738095 -9.409524 12 13 20 
-2.902655 5.687315 -9.326254 20 18 29 
-2.830409 5.637427 -9.244445 17 16 26 
-2.595238 5.738095 -9.409524 15 14 20 
-2.517647 5.670588 -9.298823 15 15 18 
-2.427746 5.572254 -9.137572 10 10 12 
-2.340909 5.477273 -8.981818 20 20 21 
-2.282486 5.446328 -8.931074 26 26 28 
-2.237288 5.446328 -8.931074 24 24 28 
-2.309524 5.738095 -9.409524 15 14 20 
-2.153846 5.704142 -9.353847 18 17 25 
-2.106509 5.704142 -9.353847 19 18 26 
-1.897143 5.508572 -9.033143 38 37 40 
-1.835694 5.461756 -8.956374 41 40 38 
-1.886792 6.062893 -9.942139 87 67 54 
-1.732938 5.721068 -9.381602 118 90 76 
-1.655977 5.620991 -9.217493 143 109 90 
-1.609329 5.620991 -9.217493 138 101 78 
-1.562682 5.620991 -9.217493 128 89 65 
-1.495549 5.721068 -9.381602 130 94 68 
-1.380117 5.637427 -9.244445 99 76 55 
-1.353116 5.721068 -9.381602 86 69 51 
-1.305638 5.721068 -9.381602 82 71 56 
-1.250737 5.687315 -9.326254 78 72 60 
-1.172414 5.540230 -9.085058 60 57 48 
-1.126437 5.540230 -9.085058 32 31 30 
-1.119048 5.738095 -9.409524 24 25 29 
-1.023810 5.738095 -9.409524 16 15 19 
-0.973294 5.721068 -9.381602 20 19 17 
-0.550000 4.016667 -6.586667 26 26 28 
-0.700565 5.446328 -8.931074 17 17 17 
-0.610169 5.446328 -8.931074 15 14 13 
-0.484262 4.668281 -7.655206 16 13 15 
-0.444444 4.657005 -7.636715 21 16 20 
-0.359743 4.128479 -6.770021 21 16 22 
-0.293103 4.155172 -6.813793 16 21 27 
-0.085653 4.128479 -6.770021 96 32 31 
-0.050955 4.093418 -6.712527 127 45 41 
-0.016985 4.093418 -6.712527 152 50 40 
0.016985 4.093418 -6.712527 164 42 27 
0.093750 7.531250 -12.350000 175 35 20 
1.218750 7.531250 -12.350000 213 100 39 
1.281250 7.531250 -12.350000 220 104 40 
1.343750 7.531250 -12.350000 211 90 27 
1.406250 7.531250 -12.350000 211 87 28 
1.468750 7.531250 -12.350000 205 78 23 
1.531250 7.531250 -12.350000 201 72 22 
1.593750 7.531250 -12.350000 199 69 23 
2.218750 7.531250 -12.350000 73 25 23 
2.281250 7.531250 -12.350000 50 20 20 
2.343750 7.531250 -12.350000 46 26 26 
2.406250 7.531250 -12.350000 43 25 26 
2.468750 7.531250 -12.350000 42 28 29 
2.656250 7.531250 -12.350000 20 23 26 
2.718750 7.531250 -12.350000 22 29 32 
2.781250 7.531250 -12.350000 27 26 31 
3.031250 7.531250 -12.350000 14 11 18 
2.467290 6.006230 -9.849221 14 11 18 
2.501548 5.969040 -9.788236 16 13 20 
2.551084 5.969040 -9.788236 19 17 25 
2.537764 5.824773 -9.551661 17 14 21 
3.593750 7.531250 -12.350000 24 23 28 
3.656250 7.531250 -12.350000 24 23 28 
3.718750 7.531250 -12.350000 26 25 31 
2.757835 5.492877 -9.007408 19 18 24 
2.803419 5.492877 -9.007408 14 13 19 
2.873563 5.540230 -9.085058 23 22 29 
3.014837 5.721068 -9.381602 25 23 33 
3.062315 5.721068 -9.381602 15 14 25 
3.091445 5.687315 -9.326254 16 14 25 
3.325000 6.025000 -9.880000 20 18 29 
3.913043 6.985507 -11.455072 20 19 29 
4.281250 7.531250 -12.350000 18 16 25 
4.028986 6.985507 -11.455072 14 13 21 
3.563863 6.006230 -9.849221 26 23 34 
3.625000 6.025000 -9.880000 23 20 31 
3.663551 6.006230 -9.849221 24 21 32 
3.725000 6.025000 -9.880000 19 17 28 
3.813084 6.006230 -9.849221 20 20 27 
4.101911 6.140127 -10.068790 22 21 25 
4.149068 5.987577 -9.818634 18 17 25 
4.035821 5.755224 -9.437613 20 18 29 
4.083582 5.755224 -9.437613 21 19 31 
4.271605 5.950617 -9.758025 13 11 22 
4.361371 6.006230 -9.849221 19 18 27 
4.411215 6.006230 -9.849221 20 19 27 
4.447205 5.987577 -9.818634 20 19 26 
4.441718 5.914111 -9.698160 28 27 33 
4.490798 5.914111 -9.698160 20 19 25 
4.681115 5.969040 -9.788236 22 21 25 
4.520710 5.704142 -9.353847 22 22 26 
4.568048 5.704142 -9.353847 23 22 27 
4.601770 5.687315 -9.326254 21 18 24 
4.648968 5.687315 -9.326254 19 16 23 
4.710059 5.704142 -9.353847 17 14 21 
6.281250 7.531250 -12.350000 21 19 25 
5.077399 5.969040 -9.788236 20 17 25 
5.003021 5.824773 -9.551661 19 16 26 
4.991045 5.755224 -9.437613 20 18 30 
5.023809 5.738095 -9.409524 19 17 29 
5.086567 5.755224 -9.437613 16 14 25 
4.831460 5.415730 -8.880899 20 18 28 
4.849162 5.385475 -8.831285 22 22 27 
4.977273 5.477273 -8.981818 26 26 29 
5.230769 5.704142 -9.353847 28 28 31 
5.293768 5.721068 -9.381602 23 23 26 
5.373134 5.755224 -9.437613 22 21 25 
5.570552 5.914111 -9.698160 22 21 27 
5.452381 5.738095 -9.409524 23 22 29 
5.483679 5.721068 -9.381602 22 20 30 
5.531157 5.721068 -9.381602 24 22 34 
7.406250 7.531250 -12.350000 18 16 26 
7.468750 7.531250 -12.350000 17 15 22 
5.824773 5.824773 -9.551661 18 15 22 
5.873112 5.824773 -9.551661 18 15 22 
5.850746 5.755224 -9.437613 18 16 22 
-6.394737 6.289474 -10.400001 25 24 32 
-6.342105 6.289474 -10.400001 22 20 30 
-6.289474 6.289474 -10.400001 23 22 30 
-7.406250 7.468750 -12.350000 11 10 16 
-7.343750 7.468750 -12.350000 17 17 19 
-6.361775 6.525597 -10.790444 22 22 22 
-6.078948 6.289474 -10.400001 17 17 18 
-5.707165 5.956386 -9.849221 20 19 23 
-5.657321 5.956386 -9.849221 20 19 25 
-5.806452 6.167742 -10.198710 21 18 28 
-5.754839 6.167742 -10.198710 19 16 27 
-5.594937 6.050633 -10.005064 17 14 27 
-5.561905 6.069841 -10.036826 22 19 32 
-6.781250 7.468750 -12.350000 23 20 31 
-6.718750 7.468750 -12.350000 23 21 27 
-6.656250 7.468750 -12.350000 25 23 27 
-6.593750 7.468750 -12.350000 24 22 27 
-6.531250 7.468750 -12.350000 20 18 23 
-5.414966 6.503401 -10.753742 18 17 22 
-5.029316 6.228013 -10.298371 25 23 33 
-4.805031 6.012578 -9.942139 27 25 36 
-4.176795 5.281768 -8.733702 26 24 35 
-4.660436 5.956386 -9.849221 24 22 33 
-4.457831 5.759036 -9.522892 17 16 25 
-4.409638 5.759036 -9.522892 17 16 26 
-4.525000 5.975000 -9.880000 16 15 25 
-5.281250 7.468750 -12.350000 13 12 17 
-4.409241 6.310231 -10.434323 21 21 24 
-4.356436 6.310231 -10.434323 19 19 21 
-4.316151 6.570447 -10.864605 10 9 17 
-4.025974 6.207792 -10.264935 10 9 17 
-3.974026 6.207792 -10.264935 20 19 27 
-3.402817 5.385915 -8.905916 17 16 24 
-3.265754 5.238356 -8.661918 18 17 25 
-3.733333 6.069841 -10.036826 10 9 17 
-3.694268 6.089172 -10.068790 7 6 14 
-4.468750 7.468750 -12.350000 9 10 16 
-3.547170 6.012578 -9.942139 19 19 24 
-3.496855 6.012578 -9.942139 16 17 22 
-3.457413 6.031546 -9.973502 27 28 33 
-3.406940 6.031546 -9.973502 15 16 21 
-3.335423 5.993731 -9.910972 20 21 26 
-3.285266 5.993731 -9.910972 20 20 27 
-3.236842 6.289474 -10.400001 23 21 32 
-3.184211 6.289474 -10.400001 22 20 31 
-2.625000 5.975000 -9.880000 18 18 20 
-2.575000 5.975000 -9.880000 29 29 29 
-2.295455 5.431818 -8.981818 27 27 29 
-2.605263 6.289474 -10.400001 23 22 26 
-2.552632 6.289474 -10.400001 20 19 24 
-2.500000 6.289474 -10.400001 19 18 26 
-2.423453 6.228013 -10.298371 20 19 27 
-2.212766 5.811550 -9.609727 17 16 24 
-2.164134 5.811550 -9.609727 21 20 28 
-2.250847 6.481356 -10.717288 39 38 41 
-2.117647 6.248366 -10.332026 45 44 42 
-2.078947 6.289474 -10.400001 45 41 32 
-2.013072 6.248366 -10.332026 64 51 38 
-1.960784 6.248366 -10.332026 96 73 57 
-1.853968 6.069841 -10.036826 129 99 81 
-1.803175 6.069841 -10.036826 135 99 80 
-1.769231 6.128205 -10.133333 131 93 72 
-1.757377 6.268852 -10.365902 143 103 81 
-1.704918 6.268852 -10.365902 139 99 74 
-1.605096 6.089172 -10.068790 119 81 58 
-1.557756 6.310231 -10.434323 108 81 64 
-1.504951 6.310231 -10.434323 100 79 64 
-1.452145 6.310231 -10.434323 79 67 55 
-1.346032 6.069841 -10.036826 66 59 49 
-1.255385 5.883077 -9.728001 53 49 42 
-1.289474 6.289474 -10.400001 32 31 30 
-1.240924 6.310231 -10.434323 24 25 30 
-1.124183 6.248366 -10.332026 16 16 19 
-1.064935 6.207792 -10.264935 13 13 11 
-1.012987 6.207792 -10.264935 20 20 18 
-0.964169 6.228013 -10.298371 22 22 23 
-0.912052 6.228013 -10.298371 22 21 25 
-0.854369 6.187702 -10.231715 22 22 25 
-0.700565 5.401130 -8.931074 25 24 25 
-0.086393 4.129590 -6.828510 144 41 37 
-0.051836 4.129590 -6.828510 155 41 34 
-0.017094 4.085470 -6.755556 164 39 24 
0.406250 7.468750 -12.350000 196 55 17 
0.468750 7.468750 -12.350000 193 60 14 
0.656250 7.468750 -12.350000 205 63 21 
0.906250 7.468750 -12.350000 204 74 21 
0.968750 7.468750 -12.350000 200 74 16 
1.031250 7.468750 -12.350000 218 94 31 
1.093750 7.468750 -12.350000 224 103 36 
1.156250 7.468750 -12.350000 204 91 19 
1.218750 7.468750 -12.350000 212 107 30 
1.281250 7.468750 -12.350000 220 113 34 
1.343750 7.468750 -12.350000 217 105 28 
1.406250 7.468750 -12.350000 217 104 30 
1.468750 7.468750 -12.350000 204 90 20 
1.531250 7.468750 -12.350000 195 80 15 
1.522388 7.134328 -11.797015 203 86 24 
1.582090 7.134328 -11.797015 210 87 29 
1.641791 7.134328 -11.797015 217 87 33 
2.218750 7.468750 -12.350000 120 38 30 
2.281250 7.468750 -12.350000 95 32 25 
2.343750 7.468750 -12.350000 88 34 28 
2.406250 7.468750 -12.350000 85 36 30 
2.468750 7.468750 -12.350000 77 36 32 
2.593750 7.468750 -12.350000 37 22 20 
2.656250 7.468750 -12.350000 23 21 22 
2.718750 7.468750 -12.350000 22 28 30 
2.906250 7.468750 -12.350000 28 23 27 
2.968750 7.468750 -12.350000 24 20 25 
2.527687 6.228013 -10.298371 18 15 21 
2.546624 6.147910 -10.165916 17 14 21 
2.598071 6.147910 -10.165916 12 10 16 
2.684039 6.228013 -10.298371 22 20 28 
2.790698 6.352160 -10.503654 20 18 25 
3.656250 7.468750 -12.350000 29 28 33 
3.718750 7.468750 -12.350000 18 18 23 
3.184211 6.289474 -10.400001 17 16 22 
2.803419 5.447293 -9.007408 21 20 26 
2.849003 5.447293 -9.007408 23 22 30 
3.455782 6.503401 -10.753742 22 20 31 
3.510204 6.503401 -10.753742 19 17 29 
3.481728 6.352160 -10.503654 22 20 31 
3.511551 6.310231 -10.434323 20 18 29 
3.588040 6.352160 -10.503654 23 21 32 
3.629139 6.331126 -10.468875 16 15 23 
3.669967 6.310231 -10.434323 9 8 16 
3.698361 6.268852 -10.365902 19 17 25 
3.666667 6.128205 -10.133333 27 24 34 
3.717949 6.128205 -10.133333 24 21 32 
3.881188 6.310231 -10.434323 23 20 31 
3.908197 6.268852 -10.365902 25 22 33 
3.960656 6.268852 -10.365902 25 23 34 
4.013115 6.268852 -10.365902 27 27 33 
4.065574 6.268852 -10.365902 23 24 26 
4.131579 6.289474 -10.400001 18 19 21 
4.184210 6.289474 -10.400001 17 18 20 
4.181818 6.207792 -10.264935 21 20 25 
4.233766 6.207792 -10.264935 24 23 29 
4.271845 6.187702 -10.231715 25 24 31 
4.323625 6.187702 -10.231715 19 17 26 
4.198758 5.937888 -9.818634 19 18 29 
4.356688 6.089172 -10.068790 22 20 32 
4.407643 6.089172 -10.068790 17 15 26 
4.458599 6.089172 -10.068790 19 17 26 
4.509554 6.089172 -10.068790 21 20 28 
4.604502 6.147910 -10.165916 26 25 31 
4.763158 6.289474 -10.400001 27 26 32 
4.737864 6.187702 -10.231715 18 17 23 
4.820847 6.228013 -10.298371 17 16 21 
4.872964 6.228013 -10.298371 21 20 24 
4.925081 6.228013 -10.298371 21 20 25 
4.547619 5.690476 -9.409524 18 17 22 
4.964630 6.147910 -10.165916 23 21 27 
4.756098 5.829268 -9.639025 18 15 22 
5.067524 6.147910 -10.165916 17 14 22 
4.944099 5.937888 -9.818634 18 15 23 
6.281250 7.468750 -12.350000 24 21 28 
6.343750 7.468750 -12.350000 24 22 29 
5.093168 5.937888 -9.818634 20 17 27 
5.142857 5.937888 -9.818634 20 17 29 
5.192546 5.937888 -9.818634 21 19 32 
5.308176 6.012578 -9.942139 18 16 29 
5.695364 6.331126 -10.468875 15 14 22 
4.849162 5.340782 -8.831285 16 16 20 
4.977273 5.431818 -8.981818 19 19 21 
5.834983 6.310231 -10.434323 23 23 25 
5.849180 6.268852 -10.365902 15 15 18 
5.625000 5.975000 -9.880000 17 16 21 
5.692790 5.993731 -9.910972 15 14 21 
5.654321 5.901235 -9.758025 17 15 25 
5.866667 6.069841 -10.036826 23 21 32 
5.917460 6.069841 -10.036826 21 19 32 
7.343750 7.468750 -12.350000 13 11 23 
7.406250 7.468750 -12.350000 15 13 23 
7.468750 7.468750 -12.350000 17 14 23 
5.950617 5.901235 -9.758025 23 20 27 
5.981538 5.883077 -9.728001 21 18 25 
5.921450 5.776435 -9.551661 18 15 22 
-6.194357 5.943573 -9.910972 26 25 30 
-6.222222 6.019048 -10.036826 25 24 30 
-6.394737 6.236842 -10.400001 21 20 28 
-6.342105 6.236842 -10.400001 18 17 25 
-6.268852 6.216393 -10.365902 24 23 31 
-6.116129 6.116129 -10.198710 20 19 24 
-5.930599 5.981072 -9.973502 20 20 23 
-6.234114 6.341137 -10.573914 22 22 23 
-6.119205 6.278146 -10.468875 15 15 16 
-6.046205 6.257426 -10.434323 19 18 22 
-5.915309 6.175896 -10.298371 21 20 26 
-5.806452 6.116129 -10.198710 19 16 26 
-5.610063 5.962264 -9.942139 26 23 34 
-5.559749 5.962264 -9.942139 19 15 28 
-5.544304 6.000000 -10.005064 23 19 32 
-6.781250 7.406250 -12.350000 25 22 33 
-6.718750 7.406250 -12.350000 22 20 26 
-6.656250 7.406250 -12.350000 23 21 25 
-5.861111 6.583333 -10.977778 25 23 28 
-5.765517 6.537931 -10.902069 21 19 24 
-5.710345 6.537931 -10.902069 16 14 19 
-5.523809 6.448979 -10.753742 18 18 20 
-5.324503 6.278146 -10.468875 19 19 20 
-5.254126 6.257426 -10.434323 22 21 26 
-5.133551 6.175896 -10.298371 18 17 24 
-5.081433 6.175896 -10.298371 14 13 21 
-4.996764 6.135922 -10.231715 21 19 29 
-4.866242 6.038217 -10.068790 18 16 27 
-4.710280 5.906542 -9.849221 18 16 27 
-4.704402 5.962264 -9.942139 26 25 35 
-4.610592 5.906542 -9.849221 20 19 28 
-4.560748 5.906542 -9.849221 17 15 25 
-4.510903 5.906542 -9.849221 19 17 28 
-4.789298 6.341137 -10.573914 16 15 25 
-4.849315 6.493151 -10.827397 17 16 25 
-4.682274 6.341137 -10.573914 15 14 21 
-5.406250 7.406250 -12.350000 16 15 21 
-4.598639 6.448979 -10.753742 14 14 19 
-4.409241 6.257426 -10.434323 14 13 16 
-4.489796 6.448979 -10.753742 16 16 18 
-4.240000 6.320000 -10.538667 21 20 28 
-4.172758 6.299003 -10.503654 21 20 28 
-4.025974 6.155844 -10.264935 17 16 24 
-3.974026 6.155844 -10.264935 20 19 27 
-3.922078 6.155844 -10.264935 24 23 31 
-3.796178 6.038217 -10.068790 19 18 26 
-3.745223 6.038217 -10.068790 9 8 16 
-3.682540 6.019048 -10.036826 8 8 16 
-3.631746 6.019048 -10.036826 13 14 20 
-3.547170 5.962264 -9.942139 20 21 26 
-3.496855 5.962264 -9.942139 17 18 23 
-3.446541 5.962264 -9.942139 18 19 24 
-3.406940 5.981072 -9.973502 12 13 17 
-3.356467 5.981072 -9.973502 20 21 25 
-3.305994 5.981072 -9.973502 22 23 30 
-3.968750 7.406250 -12.350000 19 18 28 
-3.289474 6.236842 -10.400001 24 22 33 
-3.226229 6.216393 -10.365902 22 20 31 
-3.337931 6.537931 -10.902069 17 15 26 
-3.282759 6.537931 -10.902069 16 14 25 
-3.162162 6.405406 -10.681082 16 14 25 
-3.046358 6.278146 -10.468875 15 13 22 
-2.973684 6.236842 -10.400001 14 13 19 
-2.633229 5.943573 -9.910972 24 24 26 
-2.583072 5.943573 -9.910972 27 27 28 
-2.491803 6.216393 -10.365902 23 22 30 
-2.407767 6.135922 -10.231715 24 23 31 
-2.226300 5.798165 -9.668502 22 21 29 
-2.164134 5.762918 -9.609727 22 21 29 
-2.128440 5.798165 -9.668502 10 8 16 
-2.320819 6.470990 -10.790444 18 16 23 
-2.250847 6.427119 -10.717288 31 30 33 
-2.117647 6.196078 -10.332026 43 41 38 
-2.065360 6.196078 -10.332026 57 52 42 
-2.006515 6.175896 -10.298371 76 62 47 
-1.954397 6.175896 -10.298371 107 82 65 
-1.871795 6.076923 -10.133333 136 102 83 
-1.850163 6.175896 -10.298371 123 86 66 
-1.809836 6.216393 -10.365902 124 86 65 
-1.763158 6.236842 -10.400001 153 113 92 
-1.699346 6.196078 -10.332026 141 100 78 
-1.647059 6.196078 -10.332026 113 75 54 
-1.637584 6.362416 -10.609396 110 75 58 
-1.583893 6.362416 -10.609396 120 90 78 
-1.504951 6.257426 -10.434323 108 83 73 
-1.433225 6.175896 -10.298371 74 60 52 
-1.320872 5.906542 -9.849221 52 45 37 
-1.255385 5.833846 -9.728001 41 37 32 
-1.293729 6.257426 -10.434323 29 27 28 
-1.240924 6.257426 -10.434323 22 22 28 
-1.124183 6.196078 -10.332026 15 15 19 
-1.061489 6.135922 -10.231715 17 16 15 
-1.009709 6.135922 -10.231715 31 30 29 
-0.957929 6.135922 -10.231715 23 23 25 
-0.906149 6.135922 -10.231715 20 19 24 
-0.854369 6.135922 -10.231715 22 21 27 
0.093750 7.406250 -12.350000 192 38 13 
0.291391 6.278146 -10.468875 196 50 20 
0.344371 6.278146 -10.468875 204 76 30 
0.468750 7.406250 -12.350000 226 115 57 
0.531250 7.406250 -12.350000 224 116 55 
0.593750 7.406250 -12.350000 196 80 23 
0.656250 7.406250 -12.350000 192 71 19 
0.718750 7.406250 -12.350000 198 74 23 
0.781250 7.406250 -12.350000 204 78 25 
0.722408 6.341137 -10.573914 190 69 13 
0.775920 6.341137 -10.573914 194 79 18 
0.823920 6.299003 -10.503654 210 94 29 
0.871287 6.257426 -10.434323 228 107 39 
0.933333 6.320000 -10.538667 215 93 21 
0.986667 6.320000 -10.538667 208 95 17 
1.040000 6.320000 -10.538667 214 112 28 
1.078947 6.236842 -10.400001 219 118 32 
1.120521 6.175896 -10.298371 221 115 31 
1.176471 6.196078 -10.332026 219 108 29 
1.240924 6.257426 -10.434323 208 96 22 
1.293729 6.257426 -10.434323 206 96 24 
1.346535 6.257426 -10.434323 208 99 28 
1.376623 6.155844 -10.264935 220 105 38 
1.419355 6.116129 -10.198710 223 101 37 
1.475728 6.135922 -10.231715 207 83 25 
1.552632 6.236842 -10.400001 208 79 30 
1.643098 6.383838 -10.645118 213 74 36 
1.674419 6.299003 -10.503654 195 47 19 
1.750842 6.383838 -10.645118 189 39 16 
1.835616 6.493151 -10.827397 180 39 18 
2.156250 7.406250 -12.350000 167 41 23 
2.218750 7.406250 -12.350000 153 41 25 
2.281250 7.406250 -12.350000 143 41 26 
1.973684 6.236842 -10.400001 136 40 26 
2.019672 6.216393 -10.365902 128 40 28 
2.468750 7.406250 -12.350000 120 45 36 
2.656250 7.406250 -12.350000 31 18 18 
2.439344 6.216393 -10.365902 24 21 25 
2.467532 6.155844 -10.264935 22 19 24 
2.527687 6.175896 -10.298371 18 15 21 
2.588235 6.196078 -10.332026 20 17 24 
2.649180 6.216393 -10.365902 20 18 24 
2.719472 6.257426 -10.434323 21 19 27 
2.781457 6.278146 -10.468875 19 17 24 
2.911565 6.448979 -10.753742 15 13 19 
2.986301 6.493151 -10.827397 21 19 24 
3.240876 6.919708 -11.538687 19 17 21 
3.656250 7.406250 -12.350000 21 20 25 
3.141914 6.257426 -10.434323 8 8 13 
3.173770 6.216393 -10.365902 13 12 18 
2.811429 5.417143 -9.033143 15 14 22 
2.857143 5.417143 -9.033143 15 14 23 
3.342105 6.236842 -10.400001 19 17 28 
3.510204 6.448979 -10.753742 19 17 29 
3.458746 6.257426 -10.434323 19 17 28 
3.511551 6.257426 -10.434323 18 16 27 
3.564356 6.257426 -10.434323 22 20 30 
3.617162 6.257426 -10.434323 11 10 18 
3.669967 6.257426 -10.434323 10 9 16 
3.722772 6.257426 -10.434323 23 20 29 
3.775578 6.257426 -10.434323 23 21 31 
3.828383 6.257426 -10.434323 22 19 30 
3.986441 6.427119 -10.717288 20 17 28 
3.933993 6.257426 -10.434323 19 17 28 
3.960656 6.216393 -10.365902 23 22 33 
4.013115 6.216393 -10.365902 25 25 31 
4.065574 6.216393 -10.365902 17 18 20 
4.118033 6.216393 -10.365902 16 17 19 
4.156863 6.196078 -10.332026 14 14 16 
4.168285 6.135922 -10.231715 20 20 24 
4.220065 6.135922 -10.231715 18 17 23 
4.271845 6.135922 -10.231715 22 21 28 
4.323625 6.135922 -10.231715 21 20 29 
4.361290 6.116129 -10.198710 19 17 29 
4.412903 6.116129 -10.198710 22 20 31 
4.493506 6.155844 -10.264935 14 12 23 
4.560261 6.175896 -10.298371 17 15 24 
4.627451 6.196078 -10.332026 23 22 29 
4.710526 6.236842 -10.400001 27 26 32 
4.686084 6.135922 -10.231715 25 24 30 
4.737864 6.135922 -10.231715 17 16 22 
4.789644 6.135922 -10.231715 17 16 21 
4.857143 6.155844 -10.264935 22 21 26 
4.925081 6.175896 -10.298371 16 15 20 
4.961039 6.155844 -10.264935 9 8 14 
5.029316 6.175896 -10.298371 18 16 22 
4.952381 6.019048 -10.036826 16 13 21 
5.003175 6.019048 -10.036826 18 15 24 
4.975000 5.925000 -9.880000 20 17 26 
5.025000 5.925000 -9.880000 22 19 27 
5.075000 5.925000 -9.880000 19 16 24 
5.273312 6.096463 -10.165916 18 15 26 
5.324759 6.096463 -10.165916 20 17 31 
5.376206 6.096463 -10.165916 18 15 29 
5.534426 6.216393 -10.365902 16 14 28 
5.586885 6.216393 -10.365902 16 14 26 
5.639344 6.216393 -10.365902 15 14 22 
5.729373 6.257426 -10.434323 13 12 15 
5.820598 6.299003 -10.503654 19 19 19 
5.873754 6.299003 -10.503654 23 23 24 
5.907285 6.278146 -10.468875 14 14 18 
5.732484 6.038217 -10.068790 14 13 19 
5.765079 6.019048 -10.036826 12 11 20 
5.742947 5.943573 -9.910972 19 17 28 
5.848101 6.000000 -10.005064 23 21 33 
5.843260 5.943573 -9.910972 23 21 35 
5.968254 6.019048 -10.036826 17 15 28 
5.962264 5.962264 -9.942139 17 15 26 
6.012578 5.962264 -9.942139 20 17 27 
6.219355 6.116129 -10.198710 18 15 23 
6.171429 6.019048 -10.036826 17 14 21 
6.222222 6.019048 -10.036826 21 18 25 
-6.194357 5.893417 -9.910972 25 24 29 
-6.805555 6.527778 -10.977778 21 20 26 
-6.394737 6.184210 -10.400001 17 16 23 
-6.342105 6.184210 -10.400001 10 9 17 
-6.069841 5.968254 -10.036826 19 18 25 
-5.943573 5.893417 -9.910972 23 22 28 
-5.930599 5.930599 -9.973502 16 16 19 
-6.234114 6.287625 -10.573914 19 19 20 
-6.180602 6.287625 -10.573914 17 17 18 
-6.046205 6.204620 -10.434323 18 18 21 
-5.915309 6.123778 -10.298371 20 19 25 
-5.806452 6.064516 -10.198710 15 13 22 
-5.610063 5.911950 -9.942139 22 19 29 
-5.559749 5.911950 -9.942139 24 20 32 
-5.544304 5.949367 -10.005064 29 25 38 
-5.986207 6.482759 -10.902069 23 20 30 
-5.972222 6.527778 -10.977778 18 16 22 
-5.875862 6.482759 -10.902069 15 13 17 
-5.664430 6.308725 -10.609396 21 19 24 
-5.610738 6.308725 -10.609396 22 20 26 
-5.557047 6.308725 -10.609396 18 16 22 
-5.523809 6.394558 -10.753742 13 13 16 
-5.324503 6.225165 -10.468875 20 20 22 
-5.202614 6.143791 -10.332026 21 20 25 
-5.100324 6.084142 -10.231715 22 21 29 
-5.032258 6.064516 -10.198710 25 24 33 
-4.980645 6.064516 -10.198710 24 22 34 
-4.866242 5.987261 -10.068790 14 12 24 
-4.710280 5.856698 -9.849221 17 15 27 
-4.660436 5.856698 -9.849221 23 21 33 
-4.471299 5.679758 -9.551661 16 15 25 
-4.560748 5.856698 -9.849221 19 18 28 
-4.525000 5.875000 -9.880000 24 22 33 
-4.789298 6.287625 -10.573914 22 20 30 
-4.735786 6.287625 -10.573914 24 22 31 
-4.605263 6.184210 -10.400001 16 15 21 
-4.537705 6.163934 -10.365902 14 14 20 
-4.398714 6.045016 -10.165916 20 19 25 
-4.292064 5.968254 -10.036826 25 24 29 
-4.214511 5.930599 -9.973502 22 21 25 
-4.190476 5.968254 -10.036826 18 17 20 
-4.139683 5.968254 -10.036826 18 17 22 
-4.222951 6.163934 -10.365902 21 20 27 
-4.170492 6.163934 -10.365902 22 21 29 
-4.077922 6.103896 -10.264935 24 23 31 
-4.025974 6.103896 -10.264935 22 21 29 
-3.873418 5.949367 -10.005064 20 19 27 
-3.822785 5.949367 -10.005064 24 23 32 
-3.772152 5.949367 -10.005064 20 19 27 
-3.733333 5.968254 -10.036826 11 10 19 
-3.682540 5.968254 -10.036826 18 18 26 
-3.631746 5.968254 -10.036826 23 23 30 
-3.547170 5.911950 -9.942139 27 27 33 
-3.496855 5.911950 -9.942139 27 28 34 
-3.446541 5.911950 -9.942139 20 21 26 
-3.406940 5.930599 -9.973502 24 25 29 
-3.356467 5.930599 -9.973502 27 28 33 
-3.305994 5.930599 -9.973502 23 23 30 
-3.276191 5.968254 -10.036826 18 18 27 
-3.266881 6.045016 -10.165916 14 13 22 
-3.194888 6.006390 -10.100959 22 21 31 
-3.184466 6.084142 -10.231715 24 22 32 
-3.184211 6.184210 -10.400001 17 16 26 
-3.152318 6.225165 -10.468875 16 14 24 
-3.120000 6.266667 -10.538667 25 23 33 
-3.026316 6.184210 -10.400001 26 24 33 
-2.973684 6.184210 -10.400001 22 21 27 
-2.583072 5.893417 -9.910972 20 20 21 
-2.491803 6.163934 -10.365902 21 20 27 
-2.339623 5.911950 -9.942139 21 20 28 
-2.282132 5.893417 -9.910972 24 23 31 
-2.177370 5.749236 -9.668502 20 19 27 
-2.128440 5.749236 -9.668502 18 15 23 
-2.320819 6.416382 -10.790444 23 20 27 
-2.250847 6.372881 -10.717288 32 31 34 
-2.117647 6.143791 -10.332026 42 40 36 
-2.065360 6.143791 -10.332026 55 49 39 
-2.013072 6.143791 -10.332026 78 63 49 
-1.960784 6.143791 -10.332026 104 79 61 
-1.883871 6.064516 -10.198710 134 101 81 
-1.850163 6.123778 -10.298371 125 89 69 
-1.803922 6.143791 -10.332026 122 85 65 
-1.757377 6.163934 -10.365902 134 95 74 
-1.688312 6.103896 -10.264935 135 95 75 
-1.605096 5.987261 -10.068790 136 97 78 
-1.605263 6.184210 -10.400001 130 94 80 
-1.557756 6.204620 -10.434323 117 85 76 
-1.485342 6.123778 -10.298371 103 76 70 
-1.370716 5.856698 -9.849221 74 58 52 
-1.320872 5.856698 -9.849221 43 34 28 
-1.346535 6.204620 -10.434323 41 37 34 
-1.302326 6.245847 -10.503654 19 17 19 
-1.240924 6.204620 -10.434323 18 17 24 
-1.131579 6.184210 -10.400001 22 21 24 
-1.064935 6.103896 -10.264935 29 28 26 
-1.012987 6.103896 -10.264935 27 26 25 
-0.957929 6.084142 -10.231715 23 22 25 
-0.912052 6.123778 -10.298371 22 21 26 
0.051282 4.017094 -6.755556 191 30 7 
0.073394 3.449541 -5.801101 193 34 12 
0.104673 3.514019 -5.909533 197 37 17 
0.236842 6.184210 -10.400001 192 34 14 
0.289474 6.184210 -10.400001 186 42 11 
0.342105 6.184210 -10.400001 206 82 34 
0.393443 6.163934 -10.365902 235 132 72 
0.447368 6.184210 -10.400001 237 142 78 
0.560886 6.937269 -11.666421 212 115 52 
0.619926 6.937269 -11.666421 197 98 38 
0.597403 6.103896 -10.264935 201 99 40 
0.649351 6.103896 -10.264935 206 98 37 
0.715232 6.225165 -10.468875 198 92 27 
0.768212 6.225165 -10.468875 202 99 31 
0.815789 6.184210 -10.400001 213 106 34 
0.868421 6.184210 -10.400001 218 100 28 
0.924092 6.204620 -10.434323 210 88 14 
0.976898 6.204620 -10.434323 209 92 14 
1.026316 6.184210 -10.400001 215 110 25 
1.068404 6.123778 -10.298371 217 117 31 
1.120521 6.123778 -10.298371 217 112 28 
1.172638 6.123778 -10.298371 214 100 22 
1.224756 6.123778 -10.298371 213 96 22 
1.272727 6.103896 -10.264935 214 99 27 
1.324675 6.103896 -10.264935 217 106 35 
1.367742 6.064516 -10.198710 219 108 37 
1.414791 6.045016 -10.165916 209 96 27 
1.470968 6.064516 -10.198710 214 103 37 
1.527508 6.084142 -10.231715 218 105 45 
1.632107 6.287625 -10.573914 201 79 28 
1.674419 6.245847 -10.503654 199 66 24 
1.739130 6.287625 -10.573914 204 65 28 
1.829352 6.416382 -10.790444 204 64 31 
1.890411 6.438356 -10.827397 192 57 28 
1.938567 6.416382 -10.790444 179 50 24 
1.921053 6.184210 -10.400001 177 47 25 
1.967213 6.163934 -10.365902 172 43 24 
2.006515 6.123778 -10.298371 168 49 32 
2.065360 6.143791 -10.332026 155 51 38 
2.131579 6.184210 -10.400001 127 47 37 
2.468401 6.988848 -11.753160 91 38 34 
2.527881 6.988848 -11.753160 47 20 19 
2.379085 6.143791 -10.332026 27 26 28 
2.361905 5.968254 -10.036826 20 19 22 
2.405063 5.949367 -10.005064 21 19 24 
2.455696 5.949367 -10.005064 27 24 31 
2.546624 6.045016 -10.165916 26 22 29 
2.640523 6.143791 -10.332026 27 23 30 
2.719472 6.204620 -10.434323 25 21 30 
2.781457 6.225165 -10.468875 24 21 28 
2.843854 6.245847 -10.503654 15 13 18 
2.965986 6.394558 -10.753742 18 16 20 
3.240876 6.861314 -11.538687 16 14 17 
3.299270 6.861314 -11.538687 16 15 18 
3.345454 6.836364 -11.496728 25 25 28 
3.089109 6.204620 -10.434323 21 20 24 
3.141914 6.204620 -10.434323 12 11 17 
3.173770 6.163934 -10.365902 12 11 17 
3.153846 6.025641 -10.133333 14 13 20 
3.278688 6.163934 -10.365902 14 13 22 
3.455782 6.394558 -10.753742 20 18 29 
3.546392 6.460481 -10.864605 18 16 28 
3.458746 6.204620 -10.434323 12 10 22 
3.511551 6.204620 -10.434323 16 15 25 
3.564356 6.204620 -10.434323 23 21 30 
3.617162 6.204620 -10.434323 13 12 20 
3.669967 6.204620 -10.434323 13 12 20 
3.722772 6.204620 -10.434323 24 22 30 
3.775578 6.204620 -10.434323 26 23 34 
3.932203 6.372881 -10.717288 19 16 27 
4.013652 6.416382 -10.790444 15 12 23 
4.040678 6.372881 -10.717288 15 13 23 
3.973684 6.184210 -10.400001 21 19 30 
4.013115 6.163934 -10.365902 19 18 25 
4.065574 6.163934 -10.365902 8 8 11 
4.118033 6.163934 -10.365902 15 15 17 
4.156863 6.143791 -10.332026 13 14 16 
4.209150 6.143791 -10.332026 13 12 16 
4.233766 6.103896 -10.264935 18 16 22 
4.271845 6.084142 -10.231715 22 20 28 
4.309678 6.064516 -10.198710 23 21 29 
4.361290 6.064516 -10.198710 26 24 35 
4.427185 6.084142 -10.231715 24 22 33 
4.493506 6.103896 -10.264935 19 17 28 
4.575163 6.143791 -10.332026 16 14 23 
4.642623 6.163934 -10.365902 21 20 27 
4.710526 6.184210 -10.400001 23 22 29 
4.747541 6.163934 -10.365902 20 19 25 
4.737864 6.084142 -10.231715 18 17 23 
4.789644 6.084142 -10.231715 18 17 22 
4.857143 6.103896 -10.264935 20 20 24 
4.941176 6.143791 -10.332026 19 18 23 
4.993464 6.143791 -10.332026 9 8 14 
5.045752 6.143791 -10.332026 17 15 22 
5.016077 6.045016 -10.165916 21 19 27 
5.067524 6.045016 -10.165916 19 16 25 
5.006289 5.911950 -9.942139 15 13 22 
5.056604 5.911950 -9.942139 14 12 20 
5.043478 5.838509 -9.818634 18 16 25 
5.273312 6.045016 -10.165916 18 15 27 
5.257143 5.968254 -10.036826 18 15 29 
5.376206 6.045016 -10.165916 20 17 32 
5.534426 6.163934 -10.365902 22 20 33 
5.642384 6.225165 -10.468875 22 20 32 
5.695364 6.225165 -10.468875 24 22 30 
5.748344 6.225165 -10.468875 24 24 26 
5.820598 6.245847 -10.503654 22 22 22 
5.932886 6.308725 -10.609396 17 17 18 
5.986577 6.308725 -10.609396 14 14 18 
5.901639 6.163934 -10.365902 13 12 19 
5.765079 5.968254 -10.036826 20 19 28 
5.779180 5.930599 -9.973502 20 18 30 
5.793103 5.893417 -9.910972 19 17 30 
5.843260 5.893417 -9.910972 18 16 30 
5.893417 5.893417 -9.910972 14 12 25 
5.962264 5.911950 -9.942139 12 11 21 
6.012578 5.911950 -9.942139 20 17 26 
6.280130 6.123778 -10.298371 17 15 22 
6.250804 6.045016 -10.165916 15 13 20 
6.302251 6.045016 -10.165916 25 22 30 
-5.629630 5.310541 -9.007408 19 19 22 
-6.144201 5.843260 -9.910972 18 17 22 
-6.394737 6.131579 -10.400001 17 16 23 
-6.120635 5.917460 -10.036826 19 18 26 
-5.993731 5.843260 -9.910972 24 23 31 
-5.943573 5.843260 -9.910972 22 21 28 
-5.893417 5.843260 -9.910972 22 21 26 
-6.180602 6.234114 -10.573914 12 12 12 
-5.967427 6.071661 -10.298371 23 23 21 
-5.858065 6.012903 -10.198710 23 23 25 
-5.660378 5.861635 -9.942139 22 21 26 
-5.557632 5.806854 -9.849221 27 26 32 
-5.507788 5.806854 -9.849221 28 27 34 
-5.475000 5.825000 -9.880000 27 25 33 
-5.986207 6.427586 -10.902069 24 22 29 
-5.931035 6.427586 -10.902069 22 21 25 
-5.795918 6.340136 -10.753742 24 23 28 
-5.589404 6.172185 -10.468875 19 18 23 
-5.500000 6.131579 -10.400001 24 22 30 
-5.207547 5.861635 -9.942139 24 22 31 
-5.093168 5.788820 -9.818634 20 19 26 
-5.123028 5.880126 -9.973502 22 21 28 
-5.254902 6.091503 -10.332026 22 21 27 
-5.022082 5.880126 -9.973502 13 12 18 
-4.987342 5.898734 -10.005064 19 17 27 
-4.936709 5.898734 -10.005064 23 21 35 
-4.917197 5.936306 -10.068790 19 16 35 
-4.760125 5.806854 -9.849221 18 15 36 
-4.567976 5.631420 -9.551661 21 19 38 
-4.519638 5.631420 -9.551661 21 19 37 
-4.431138 5.580838 -9.465869 25 23 38 
-4.396396 5.597598 -9.494294 26 24 35 
-4.510903 5.806854 -9.849221 17 16 24 
-4.664495 6.071661 -10.298371 14 13 22 
-4.657895 6.131579 -10.400001 17 16 24 
-4.605263 6.131579 -10.400001 10 9 16 
-4.393651 5.917460 -10.036826 12 12 19 
-4.301887 5.861635 -9.942139 16 15 22 
-4.211838 5.806854 -9.849221 20 19 26 
-4.136223 5.770898 -9.788236 23 22 28 
-3.975904 5.614458 -9.522892 17 16 21 
-4.113564 5.880126 -9.973502 14 12 18 
-4.101911 5.936306 -10.068790 24 21 28 
-4.143322 6.071661 -10.298371 20 16 24 
-3.987302 5.917460 -10.036826 18 16 24 
-3.862928 5.806854 -9.849221 17 15 24 
-3.813084 5.806854 -9.849221 21 20 30 
-3.763240 5.806854 -9.849221 23 23 33 
-3.725000 5.825000 -9.880000 19 19 29 
-3.721519 5.898734 -10.005064 10 10 21 
-3.682540 5.917460 -10.036826 20 19 30 
-3.714286 6.051948 -10.264935 22 21 31 
-3.627010 5.993569 -10.165916 22 21 30 
-3.518987 5.898734 -10.005064 19 19 26 
-3.446541 5.861635 -9.942139 18 18 24 
-3.396226 5.861635 -9.942139 20 20 25 
-3.356467 5.880126 -9.973502 16 16 21 
-3.358974 5.974359 -10.133333 14 14 19 
-3.194888 5.955272 -10.100959 19 18 25 
-3.226229 6.111475 -10.365902 21 20 27 
-3.337931 6.427586 -10.902069 16 15 22 
-3.173333 6.213333 -10.538667 11 10 17 
-3.099338 6.172185 -10.468875 17 16 23 
-3.016393 6.111475 -10.365902 22 21 28 
-2.973684 6.131579 -10.400001 26 25 31 
-2.633229 5.843260 -9.910972 14 14 16 
-2.551084 5.770898 -9.788236 8 8 9 
-2.525000 5.825000 -9.880000 15 15 15 
-2.491803 6.111475 -10.365902 23 22 30 
-2.310559 5.788820 -9.818634 15 13 23 
-2.226300 5.700306 -9.668502 18 16 25 
-2.022727 5.295455 -8.981818 22 19 26 
-1.971671 5.280453 -8.956374 25 20 25 
-2.011834 5.514793 -9.353847 30 26 28 
-2.184211 6.131579 -10.400001 39 36 36 
-2.117647 6.091503 -10.332026 38 35 31 
-2.065360 6.091503 -10.332026 61 56 48 
-1.906040 6.255033 -10.609396 121 86 70 
-1.803922 6.091503 -10.332026 120 81 64 
-1.763158 6.131579 -10.400001 116 77 59 
-1.688312 6.051948 -10.264935 110 72 52 
-1.647059 6.091503 -10.332026 116 81 61 
-1.485342 6.071661 -10.298371 98 74 66 
-1.370716 5.806854 -9.849221 83 63 56 
-1.292683 5.682927 -9.639025 51 36 31 
-1.225225 5.597598 -9.494294 43 35 34 
-1.302326 6.192691 -10.503654 21 16 20 
0.044037 3.420183 -5.801101 193 34 13 
0.073394 3.420183 -5.801101 192 33 12 
0.104673 3.484112 -5.909533 193 34 13 
0.238411 6.172185 -10.468875 194 38 15 
0.343750 7.281250 -12.350000 190 42 12 
0.406250 7.281250 -12.350000 198 59 23 
0.468750 7.281250 -12.350000 205 80 38 
0.447368 6.131579 -10.400001 222 119 72 
0.500000 6.131579 -10.400001 224 144 91 
0.668896 6.234114 -10.573914 232 152 86 
0.722408 6.234114 -10.573914 228 143 69 
0.775920 6.234114 -10.573914 228 140 61 
0.815789 6.131579 -10.400001 225 131 50 
0.868421 6.131579 -10.400001 207 103 22 
0.933333 6.213333 -10.538667 204 94 14 
0.986667 6.213333 -10.538667 208 98 15 
1.026316 6.131579 -10.400001 217 111 26 
1.071895 6.091503 -10.332026 219 117 36 
1.120521 6.071661 -10.298371 209 104 27 
1.184211 6.131579 -10.400001 210 101 25 
1.228758 6.091503 -10.332026 214 103 28 
1.276873 6.071661 -10.298371 215 104 30 
1.324675 6.051948 -10.264935 218 108 36 
1.363344 5.993569 -10.165916 207 97 28 
1.423948 6.032362 -10.231715 204 95 27 
1.475728 6.032362 -10.231715 212 105 38 
1.527508 6.032362 -10.231715 209 99 35 
1.615894 6.172185 -10.468875 197 80 23 
1.668874 6.172185 -10.468875 207 84 34 
1.727575 6.192691 -10.503654 212 86 40 
1.829352 6.361775 -10.790444 211 85 41 
1.923345 6.494773 -11.016028 208 81 40 
1.938567 6.361775 -10.790444 203 76 36 
1.921053 6.131579 -10.400001 202 71 33 
1.967213 6.111475 -10.365902 193 59 25 
2.019672 6.111475 -10.365902 179 48 20 
2.078947 6.131579 -10.400001 167 43 22 
2.131579 6.131579 -10.400001 148 42 27 
2.496241 7.007519 -11.885715 126 47 37 
2.656250 7.281250 -12.350000 83 34 28 
2.431373 6.091503 -10.332026 18 19 20 
2.397476 5.880126 -9.973502 10 10 15 
2.447949 5.880126 -9.973502 21 18 24 
2.579805 6.071661 -10.298371 25 18 24 
2.666667 6.151815 -10.434323 26 17 25 
2.737541 6.192691 -10.503654 29 22 31 
2.800000 6.213333 -10.538667 26 24 32 
2.931507 6.383562 -10.827397 17 15 22 
3.406250 7.281250 -12.350000 17 13 19 
3.531250 7.281250 -12.350000 17 16 18 
3.345454 6.778182 -11.496728 24 25 27 
3.089109 6.151815 -10.434323 27 26 31 
3.141914 6.151815 -10.434323 21 17 23 
3.194720 6.151815 -10.434323 16 13 17 
3.247525 6.151815 -10.434323 17 17 20 
3.649635 6.802920 -11.538687 16 15 21 
3.342105 6.131579 -10.400001 21 20 29 
3.546392 6.405499 -10.864605 22 20 32 
3.447368 6.131579 -10.400001 18 17 29 
3.511551 6.151815 -10.434323 16 14 25 
3.529412 6.091503 -10.332026 22 20 30 
3.570033 6.071661 -10.298371 20 18 28 
3.633987 6.091503 -10.332026 14 13 22 
3.710526 6.131579 -10.400001 19 17 27 
3.788080 6.172185 -10.468875 18 16 27 
3.932203 6.318644 -10.717288 16 14 24 
3.986441 6.318644 -10.717288 22 21 29 
4.027027 6.297297 -10.681082 17 15 23 
3.973684 6.131579 -10.400001 16 14 21 
4.026316 6.131579 -10.400001 18 15 20 
4.078948 6.131579 -10.400001 17 13 17 
4.118033 6.111475 -10.365902 24 20 24 
4.156863 6.091503 -10.332026 18 14 19 
4.209150 6.091503 -10.332026 12 7 13 
4.247557 6.071661 -10.298371 12 8 16 
4.299674 6.071661 -10.298371 22 17 26 
4.282051 5.974359 -10.133333 26 20 30 
4.333333 5.974359 -10.133333 22 17 27 
4.427185 6.032362 -10.231715 22 17 27 
4.508143 6.071661 -10.298371 22 18 28 
4.590164 6.111475 -10.365902 19 16 25 
4.657895 6.131579 -10.400001 24 22 30 
4.710526 6.131579 -10.400001 26 25 31 
4.763158 6.131579 -10.400001 26 25 31 
4.768730 6.071661 -10.298371 24 24 30 
4.820847 6.071661 -10.298371 18 18 24 
5.078948 6.131579 -10.400001 17 17 22 
5.114754 6.111475 -10.365902 17 19 23 
5.133551 6.071661 -10.298371 19 20 25 
5.118971 5.993569 -10.165916 16 17 23 
5.273312 5.993569 -10.165916 15 14 26 
4.899408 5.514793 -9.353847 13 11 22 
4.917647 5.482353 -9.298823 21 19 30 
4.822857 5.325714 -9.033143 22 20 31 
5.056380 5.531157 -9.381602 19 17 27 
5.103858 5.531157 -9.381602 19 18 25 
5.476341 5.880126 -9.973502 24 23 26 
5.820598 6.192691 -10.503654 19 20 19 
5.873754 6.192691 -10.503654 14 15 12 
5.986577 6.255033 -10.609396 18 19 17 
5.921052 6.131579 -10.400001 22 23 25 
5.783440 5.936306 -10.068790 25 25 32 
5.779180 5.880126 -9.973502 19 18 30 
5.793103 5.843260 -9.910972 17 17 29 
5.825000 5.825000 -9.880000 14 13 26 
5.875000 5.825000 -9.880000 19 18 30 
5.925000 5.825000 -9.880000 21 20 30 
5.975000 5.825000 -9.880000 16 16 22 
6.199357 5.993569 -10.165916 18 17 22 
6.075000 5.825000 -9.880000 23 22 27 
5.764706 5.482353 -9.298823 23 21 26 
-5.613636 5.250000 -8.981818 22 21 24 
-6.805555 6.416667 -10.977778 18 17 21 
-6.750000 6.416667 -10.977778 20 19 24 
-6.120635 5.866667 -10.036826 22 21 29 
-6.012578 5.811321 -9.942139 22 21 29 
-5.962264 5.811321 -9.942139 21 20 26 
-6.550523 6.439024 -11.016028 23 22 27 
-6.494773 6.439024 -11.016028 21 21 23 
-6.307167 6.307167 -10.790444 18 19 17 
-6.046205 6.099010 -10.434323 20 20 18 
-5.896104 6.000000 -10.264935 18 18 18 
-5.660378 5.811321 -9.942139 21 21 23 
-5.557632 5.757010 -9.849221 25 24 28 
-5.507788 5.757010 -9.849221 22 21 27 
-6.083333 6.416667 -10.977778 19 18 23 
-6.048780 6.439024 -11.016028 17 16 21 
-5.972222 6.416667 -10.977778 23 23 27 
-5.875862 6.372414 -10.902069 27 26 31 
-5.607974 6.139535 -10.503654 21 20 26 
-5.536424 6.119205 -10.468875 18 17 25 
-5.273885 5.885350 -10.068790 19 17 27 
-5.714286 6.439024 -11.016028 18 16 26 
-5.658536 6.439024 -11.016028 20 19 27 
-5.544827 6.372414 -10.902069 19 18 25 
-4.975000 5.775000 -9.880000 19 18 25 
-4.925000 5.775000 -9.880000 16 15 25 
-4.875000 5.775000 -9.880000 15 13 27 
-4.948718 5.923077 -10.133333 13 10 28 
-4.775000 5.775000 -9.880000 18 16 36 
-4.638037 5.668712 -9.698160 22 19 41 
-4.519638 5.583082 -9.551661 15 12 32 
