ply
format ascii 1.0
element vertex 705
property double x
property double y
property double z
property uchar red
property uchar green
property uchar blue
end_header
-0.4965210440793181 -0.1656862314296445 1.4832576213952118 71 70 78
0.1996655896502484 0.0487492651998493 1.2908787378210844 91 82 83
-0.4668842268293403 -0.1137569446512329 1.4393895038162567 90 56 70
0.1998780293952538 0.0486471939508263 1.2905099052924449 91 82 83
0.4227701645698082 0.1102575207484273 1.2299351448447675 109 97 111
0.1261045492340932 0.2854110603156406 1.0863080589333856 109 108 114
0.5092954013872989 0.2406646439953252 1.1290300729771845 74 75 79
0.4271939286064436 0.0467920087884339 1.2802249821625491 122 94 117
0.4749926762347427 -0.2275267117906505 1.5057090313758354 89 33 46
-0.4739676648746371 -0.2282445579771408 1.5408940448792416 33 27 29
-0.4873523762290205 -0.2167666252519058 1.5338547362368880 37 26 32
0.0433571888119737 -0.2089008937008163 1.1132035353314131 165 155 104
0.1469344038624673 -0.4129824435376599 1.2585261756444943 189 176 132
-0.3689144766425193 -0.0562005777068271 1.3863361275110599 102 64 79
0.2013653282359973 -0.0429703923752855 1.3608668588071757 92 73 77
0.2731737370025535 -0.1737311601792134 1.4713020748208843 80 69 65
0.4965924879732421 0.0324485178905401 1.2937868854098211 106 81 76
0.4561237460679712 0.1447098888352077 1.1997385388410882 86 80 92
0.0173505724767975 0.0361816146512253 1.3037206579485676 113 98 105
-0.0551036057494889 -0.0486478442084409 1.2271400584985976 74 53 34
0.4991771972436148 0.1645433885587615 1.1839196474837510 103 97 109
0.5168289961491629 -0.1481324273349457 1.4329181335636896 39 35 36
0.5092966026481704 -0.1390945824919464 1.4249605540469514 100 86 99
0.4488664935364352 0.1549314107141274 1.1918577412624805 23 18 25
0.5136143661817857 0.1704120603302798 1.1792470363886149 113 111 116
0.4391239806436834 0.0779639258664604 1.2579486713826191 104 91 108
0.4056299744555469 -0.1105051125722317 1.4059924572217799 103 81 94
0.4055617063386654 -0.1105035889223441 1.4091792826646272 93 82 90
0.2082768271751101 -0.0597018445884637 1.3682127867386811 42 14 13
0.0621456524276134 0.3503175047220964 1.0324522294472001 92 98 94
-0.0329850727914786 0.0938175141432864 1.2510087503245844 93 98 92
0.2050642742788517 0.1571043365628870 1.1941018887826607 115 112 123
0.4509777591328608 -0.0150018471314422 1.3357020496123260 102 96 110
0.4306289682169878 -0.2989552091667513 1.5735003796599352 68 24 37
0.4811428821489981 0.1577148158859493 1.1884446919092277 44 42 45
0.1061924260843048 0.3534753027724435 1.0278583553906460 40 44 43
0.0840536457998146 0.3747287226786814 1.0097805395177024 83 56 73
0.1228928115611465 -0.2567050881388948 1.0977483011006897 30 30 28
0.4420047277178030 -0.1104523104241689 1.4088595518706648 72 21 40
0.3708552539229745 -0.0744280683741984 1.3465991150682224 81 35 46
0.2934785390177742 -0.0914180753312615 1.2637073714201288 214 178 104
0.1265784386789979 -0.3772990615279969 1.2024109114196058 153 158 188
-0.1031097514985458 0.0893121893065680 1.2526408096147947 88 58 66
0.0005496161395003 -0.2641981612256269 1.0902410103759728 149 153 182
-0.0776323052742243 -0.2172986745336400 1.1137850494824906 166 114 39
0.1508823353331343 -0.3527792267567647 1.2090658112155228 168 172 209
0.2236398273048166 -0.6697559676319415 1.9063060339913611 117 97 98
0.2221472461607219 -0.6509493085028589 1.8901473746974835 124 106 102
0.1119014844389039 -0.3490021615748266 1.1586451013415358 130 137 165
0.1545773053292789 -0.5466771816871459 1.8041275134566404 40 44 45
0.1561245409424266 -0.5376228048862250 1.7974559647869790 90 100 109
-0.0588033677112190 -0.0676916288633961 1.2189726510070789 150 130 129
0.4876798975739553 -0.1611343412849600 1.4427916718515312 115 102 112
-0.0885257863430065 -0.1803882891092022 1.1435335939553479 174 104 55
0.3581078066331270 -0.1149921655315792 1.4189649217551197 82 65 73
0.1909253997911429 -0.0293972150481580 1.3538892784141630 108 70 81
0.5306338866303596 0.1421292212093714 1.2024977978040672 69 44 39
0.1377062586115106 0.1674664213233355 1.1860951470028811 56 47 48
0.1766988723477101 -0.5388968633259595 1.7924830579100162 43 43 45
0.1525181318691316 0.2204984438545875 1.1415451339754425 129 83 109
-0.5619441391467959 -0.2354296062718017 1.5695315179963341 39 21 33
-0.5633853821929492 -0.2275129664256100 1.5597695573289874 87 79 92
-0.1332087942325632 0.1990075837088467 1.1579894954963137 69 53 38
0.1116574217355537 -0.3733100395022397 1.1789098319602713 147 153 185
0.0424077847430966 0.1596179520919035 1.1954281928179040 75 44 26
0.0208018223012437 0.1412975114141121 1.2113827122409462 121 104 96
-0.0569546009251947 0.2124042616615397 1.1513046498717945 44 34 32
0.1127284270755126 0.1655524004294211 1.1895109160198361 108 98 97
-0.0783442755876212 -0.2006239319852033 1.1205951973694823 175 109 48
-0.0793395136839972 -0.1910946756848432 1.1259049760944542 187 121 60
0.5463519863740990 0.0065618859653739 1.3119763990426856 69 45 61
-0.0416727768026739 0.2069055167603456 1.1561655263322181 41 39 42
0.3634753874884307 -0.2223769449073587 1.4991895230929644 89 56 77
0.5638610235460892 0.1490349155989090 1.1980069440010408 68 42 43
0.5637722418236213 0.1490212178900444 1.1980625468675052 69 49 40
0.5246119102296345 -0.1354339031156429 1.4222774041289050 31 19 21
-0.1000902949043931 0.0447652212951282 1.2704780420671720 64 28 30
0.3721662903851197 -0.1106471718394817 1.4150495977836675 95 83 93
0.3784230289160617 0.0856914874163371 1.2511309732308125 79 25 49
0.1306713582675246 -0.2368560896289106 1.1084552609906708 148 126 77
0.1819328716183606 0.1684220090325684 1.1866867890327146 82 44 67
-0.3617395913775561 -0.0040967792197583 1.3419317252664871 103 105 118
0.5241136642413998 0.0935079750194914 1.2418836557693969 90 87 108
0.2392023316343843 0.2162238436724154 1.1442504274886871 41 28 37
-0.0514126616519192 -0.0320421620812925 1.2140532171236151 178 144 83
0.5205978204364897 0.1464232818063786 1.1994126752192460 108 98 99
0.5560144398232875 0.1373773275062892 1.2071720627859102 87 88 93
0.5562266807315400 0.1537286506956706 1.1944190415126323 110 103 97
0.1578323316095247 -0.5939410496322860 1.8420139910083446 48 22 31
0.1806002141623981 0.1358789034941672 1.2117403395997994 47 40 48
0.4005672952506683 0.0937430964311027 1.2447301841848042 113 98 119
0.5193256051586369 0.1123804832143207 1.2276194601110992 100 88 102
0.5224644333145971 0.0774075204348151 1.2563688565406226 74 32 54
0.0861294170193652 0.2644851057122707 1.1073475290488815 71 27 42
0.5329224674815698 0.1683637157035353 1.1812688489124230 105 107 106
0.0925457547123711 0.3139150540339659 1.0623907954635110 33 35 34
0.0618941466223286 0.1124693532862969 1.2352500859551232 92 51 21
0.3897341720079211 0.2753701885978542 1.0927203142264450 108 65 46
-0.3851844702678728 -0.1844214967427398 1.5018635681257140 86 97 103
0.1907164032762116 0.1700749615278697 1.1830405027142123 106 40 76
0.4326933918699636 0.0958984209911726 1.2421493682535654 81 25 50
0.5468627021860047 0.0209728121643236 1.3003080095704507 95 89 101
0.3355821386542572 0.1308002621865671 1.2166444053317045 40 29 37
0.5461267305525102 0.0798753518768807 1.2542572918113570 67 24 43
0.5345018241841987 0.0586641546686362 1.2716027165610146 107 79 102
0.5699776662566272 0.2182242145654829 1.1455804565080281 51 22 24
0.0404694260511249 0.3471283909341127 1.0315813389749631 43 50 43
0.0275385427194301 -0.2497066805270351 1.0981913113054700 134 139 177
0.2577555426476906 0.2135633043873766 1.1463821246786006 36 27 30
0.1240545241593327 -0.2560984346148244 1.0983230063362222 32 32 32
0.0852983983629737 0.1054869503819790 1.2157345489774958 59 16 23
0.1451611215336520 -0.3626924003854596 1.2087586258163987 149 154 186
0.0383990974796997 -0.2115395498694675 1.1136848282756528 55 51 50
0.5339572287797848 -0.0688159410220680 1.3636000380727655 135 108 127
0.3342688535076390 0.0273317540981187 1.3029891735245802 97 80 86
-0.0761414028723184 -0.6719924705213439 1.9055069680101429 80 83 100
0.3065371932618615 -0.0307771223943409 1.3456917265166650 40 26 17
0.0732571262146242 -0.2588941343778550 1.1052152853263233 187 174 142
-0.0180002595259553 -0.6517096306823823 1.9000381584931827 86 85 90
0.3838908068996651 -0.2302476034655709 1.5056389270846862 103 72 88
0.1031242126172247 -0.3777689379008347 1.1636316050044690 182 161 94
-0.5210515656967473 -0.1079590268216714 1.4327298511683828 77 83 95
0.4784432179417702 -0.1285220791725278 1.4128695959818307 103 78 97
0.2965642771926829 -0.2651959922641106 1.4013220881927169 169 157 119
-0.4467849864181813 -0.0168613898968841 1.3541982262375665 105 99 101
0.0464073252817190 -0.6200175358848879 1.8741841300590143 24 25 27
-0.0450316140344001 -0.0165749178877667 1.2311140667025873 162 131 67
0.4071859327902058 -0.1945975581716708 1.4699326456008426 100 63 81
0.1255530016729593 -0.5756848481310055 1.8250630532474592 97 98 103
0.1028176066874078 -0.3490430148093157 1.1481204485144267 188 168 117
0.4515799383865137 0.0375544650531371 1.2911459503734304 106 87 106
0.0322923875865708 -0.6320760155645436 1.8810788608659295 87 90 97
0.1276238644502193 0.1643337603697247 1.1900309733599335 58 47 45
0.1552664054547560 0.1818975212712427 1.1749732749715034 121 118 127
0.1165643347716048 -0.3469316606354143 1.1572408075033904 141 146 175
0.1515155124988311 -0.3245640071571640 1.1852912569833101 146 146 174
0.4195921729496801 0.1139261718647914 1.2241658596959097 41 38 45
0.5103272469502182 -0.1378939732885227 1.4231799815405226 102 93 110
-0.0686706506059467 -0.0985501804339929 1.1748505497077899 180 145 79
0.4136334936592754 -0.2490022451352057 1.5224920253315910 87 70 76
0.0489826061408252 -0.0008730322428622 1.2905748776916643 43 39 28
0.4383267680726952 -0.0246225693835807 1.3433358348581923 85 47 62
0.5809487124559551 0.1024508492440654 1.2373940138907791 102 87 108
0.5722533913332494 0.1476731843954384 1.2008263050270753 116 102 117
0.5725640249897225 0.1480396020609071 1.2002008291507018 89 83 87
0.4251364405014615 0.1259671866892869 1.2167907192769545 38 21 29
-0.0626852820206872 0.0526047279316055 1.2630068081464878 51 30 29
0.0888864052930256 0.0611693722764191 1.2139870101839085 88 35 43
0.4487864875174257 0.1548466260834630 1.1920288177028691 23 18 25
0.5194264694568657 -0.0620722290285826 1.3630660373129329 124 116 127
0.5544513326507290 0.1112015621346427 1.2285974381414375 95 86 105
0.5150769375899785 0.0026902152392599 1.3192065268203370 78 74 91
0.5749448807129828 0.1692612110011750 1.1835579071049138 98 96 97
0.1279805100161600 -0.5861710471406719 1.8397302671144597 75 74 79
0.3530719367174295 -0.0303824526410154 1.3597836733227819 41 19 22
0.4049408141577896 0.1010471673514934 1.2380051552757152 91 89 103
0.5530990586070164 0.0387046347647037 1.2863251118427379 70 31 50
0.5103643725969423 0.0625044047024400 1.2680731425851086 93 80 100
0.1672718701243772 0.1762127580034553 1.1788619601380277 113 116 135
0.5619975502722543 0.0660358783516139 1.2647896719139422 90 77 95
0.1673399855713271 -0.1900819266863922 1.1589663498697991 128 74 30
-0.0596928510163421 -0.0848905734221162 1.2025428802110039 80 66 53
0.3485601088635347 0.1032548804316290 1.2387501345897132 40 28 32
0.1792690084031816 -0.0639656954418222 1.3606307336943539 51 23 22
-0.0629333419696342 -0.6714921051392810 1.9182963231283017 101 114 131
0.1284660208081457 -0.3801391583018448 1.2088337985034852 74 75 93
0.2851819094748062 -0.2978264062986540 1.5724737401712654 99 115 115
0.0588002871413282 -0.6166534458284120 1.8679220570080819 77 82 88
0.1758391723170062 -0.5396277889815453 1.7969016705673833 43 43 45
0.1474098314849523 -0.0226749792937669 1.3532727558586253 86 70 70
-0.6074265835431956 -0.1166251270517182 1.4411973468617432 53 30 48
0.2744982943708510 -0.1733328173187062 1.4677058730112957 86 65 60
0.1601324354873283 -0.3104143851625871 1.1881383819707581 183 166 97
0.0163625301375611 0.1851594429525850 1.1724978677716063 112 105 95
0.0728024137222854 -0.2265374782686667 1.0948344112622763 182 169 135
-0.4887103597508555 -0.0236516400200255 1.3613192386101589 108 98 86
0.4224729574291127 -0.2610920243096149 1.5354745569295394 92 80 80
-0.0720147989271594 0.1107255484282622 1.2350673574483657 57 39 39
-0.0024084575758166 0.2090317953778564 1.1521879119413965 106 107 91
0.5666996675538593 -0.0180018802633778 1.3285202250719628 83 40 67
-0.5849953688108812 -0.1413237826503246 1.4660400572405727 54 20 37
0.1785821695820114 -0.3618472344019292 1.2923495652091066 180 117 48
-0.4956746201375668 -0.0436627871938862 1.3819598335051404 102 94 105
-0.4625547551137266 -0.0011801114018467 1.3388208479143391 110 105 109
0.1916960700586381 -0.3475714197702220 1.3040276878742201 153 92 37
0.5928713254900335 0.0619754712325933 1.2679864143465958 121 104 120
0.6125583977922556 0.0566870748139811 1.2717090906218225 101 87 104
0.5472799899225540 -0.0281085013162780 1.3378458953017713 93 88 95
-0.3205710161742925 0.0771344049533429 1.2686633158473193 106 98 109
0.5905005741578829 0.0267179150435284 1.2946758843253547 52 21 39
0.3499585119161378 -0.1051645906541042 1.4141700922289142 27 17 18
0.0617195144249710 0.1128027834220539 1.2356548574537731 92 51 21
0.3829874402886169 0.0741162226110458 1.2620007453202517 124 87 105
-0.0709536357921868 -0.4030693359645571 1.1452930133011558 29 49 48
0.4711868393828685 -0.0401406427517574 1.3533921325729805 76 34 58
-0.4714529503360366 -0.0280931973717883 1.3585687303573191 74 61 45
0.2285433483887419 -0.2263020598700095 1.3291431590281777 168 139 79
0.1036643122445793 -0.3674560534102441 1.1576421796364977 173 156 136
0.2929217503999086 -0.2979715799488771 1.5726019668458231 43 48 51
0.1664035290203726 -0.3262702856022902 1.2024411570459190 176 163 118
0.1203824057546784 -0.2357698731610613 1.0917608684993596 157 149 103
0.1468248014263897 -0.4052913265818318 1.6707456083720316 48 51 40
0.2032961927470371 -0.3598331096679316 1.6307459579430938 41 37 34
-0.3687904825087527 0.1069499970523148 1.2425472018094563 83 65 79
0.2049756405992426 -0.1250138233627170 1.3620181505666094 112 56 7
0.4643834838934370 -0.0878987320091516 1.3883904397872677 61 34 53
0.4150005830219132 -0.1243248693324819 1.4154562360452123 103 70 91
0.1668821065043093 0.0847873790371889 1.2571380962146113 62 51 49
-0.0304655183868048 0.1312554297983168 1.2162865452951799 35 31 28
0.3227885568716265 -0.1102396630548078 1.4161631444322809 39 38 43
0.0481192270876041 -0.2936740955332822 1.1002082271942344 166 162 135
0.0046729419200710 0.1538643247827035 1.1983781825941993 69 43 26
0.2731741306721783 -0.3035104072467720 1.5727433435082747 91 103 103
0.1567204198166431 -0.3017572467457220 1.1506583608725947 220 195 138
0.0662600662705769 -0.2235750737572344 1.0948099046080131 60 60 72
0.6058533774960129 0.0162477166385469 1.3012669030474355 65 40 59
-0.5580022145225807 -0.0174306266690144 1.3530614968631780 115 105 116
-0.3391063452817388 0.0882014934041960 1.2554411286189671 75 24 41
-0.6489230080675481 -0.0802668265621558 1.4140050324575411 61 33 45
0.1867218328108076 -0.1993799302502743 1.2058933140717478 151 108 53
0.3822701941994673 -0.0986863721850375 1.4033279400346885 48 10 21
0.4392072074384242 0.0034372656658252 1.3185095044321284 95 92 103
0.5856186921730426 -0.0219461044184476 1.3306474068048799 96 89 105
0.5810737449028996 0.0563395602021837 1.2725602019278106 40 8 29
0.6507546328061266 0.0490254316759302 1.2780935588292579 35 45 47
0.5812349881682466 0.0561714153959790 1.2721693491932755 64 25 43
-0.5146108125286394 -0.0108415026700179 1.3395983369396824 78 46 49
0.4181294969184224 0.0591794021025265 1.2706633085308352 69 18 33
0.3140807835102404 0.0652799860728748 1.2702841912029581 32 20 24
-0.0698999104216070 -0.4213497484645148 1.1829461838666426 150 154 163
0.0738573680536238 -0.2296999070493752 1.0939222020330599 162 168 132
0.1549878517408874 -0.3104721974274797 1.1855947394818169 55 44 40
0.1182859051952528 -0.4606155584229935 1.7250998086175353 115 138 146
-0.3573036605894548 0.0784565456151334 1.2628189007904285 65 45 56
0.2122816563622359 -0.1723930520117276 1.4736121622453335 103 51 64
0.3632882551868680 -0.2445500478172206 1.5210025459628114 59 50 55
0.1463513104549080 -0.2228246890137679 1.1313336995201280 141 90 33
-0.1146674851324378 0.0838126745838236 1.2591394756079111 117 71 82
0.3001850163362204 -0.2492292218353179 1.4152736228694425 149 136 83
0.1571362709996907 -0.3329498825238184 1.1969202182447627 146 146 172
-0.0052029661934701 0.1726826176657866 1.1868446401031503 68 59 62
0.6093408880533960 -0.0728891662542809 1.3703188659867407 89 94 97
-0.1089654710671486 0.1720959871525032 1.1845117208071114 45 30 25
-0.6261860507494423 -0.0333482577706203 1.3699830739914203 89 95 107
-0.5057060935924755 -0.0440574280890657 1.3724947993233294 41 36 32
0.1331194690966188 -0.3202454405423227 1.1702926992183025 144 142 163
0.1553369899054623 -0.3438348237609397 1.2051001049137136 156 162 194
0.2274634611266512 -0.1886808068052623 1.4856273656919359 106 90 91
0.0359394280017184 -0.2204545975518416 1.1073499757800500 159 165 201
0.5345903948891689 -0.1369898696004983 1.4214432291926529 85 85 85
-0.5807252479705681 -0.0207561445821642 1.3570201179066377 53 28 34
-0.0047176815786965 0.1168501148058973 1.2317637015423641 96 102 100
0.3309219151803774 -0.1031210359613991 1.4140360112374175 79 77 82
0.5032556518257718 -0.2072988781391749 1.4887129150663247 85 59 46
0.1261938257372798 0.2372661502859789 1.1268109666971184 138 95 86
0.4324985868993412 0.1150944184521381 1.2259768888602467 103 101 114
0.3513559692530412 -0.1064042216911305 1.4116253160273711 31 14 20
-0.0414908475951677 0.1918065359645320 1.1677817983178493 82 97 94
0.4414953238655377 -0.2498653102410918 1.5268543195824626 50 18 29
0.1683895063319649 0.2665361604236544 1.1138397766304391 116 114 119
0.1608775423610609 -0.1829571477016294 1.1365867346318983 155 126 66
0.1545087509498956 -0.3068808700861324 1.1765587227264784 126 123 118
0.1631491231500400 0.2185378927958386 1.1430843050643578 132 108 124
0.1120556569859257 -0.3567825009893896 1.1581729542220676 154 159 179
-0.4953559897578658 0.0902352074348050 1.2620803404615741 103 84 80
0.1759599545919300 0.1594642703475092 1.1941984926172318 83 54 72
0.1295461970866317 0.2518670963335961 1.1152782663726908 116 55 73
0.4102905897462193 0.2169826519659238 1.1409290861605730 43 30 37
-0.5140956839003120 0.1279625791593469 1.2284011469874376 109 86 94
-0.4995241734891709 0.1161749463886105 1.2342177387853657 56 56 48
-0.4971206702252237 0.1210465829635817 1.2311667220354650 94 84 93
-0.4736205597800655 0.0683456287797975 1.2761116595872972 52 52 52
-0.4930041563018897 0.0947935498307012 1.2571782581132611 70 32 53
-0.4898388430219076 0.0996168916768228 1.2498891210458591 91 86 93
0.1547987134087618 -0.3965986045140316 1.6661806403985135 52 52 42
-0.4676483661712154 0.1303667531331160 1.2242751320250507 89 61 75
0.1401705427456899 -0.3349507588706525 1.6143544158637637 44 40 41
-0.2103937752725657 -0.5019905485644116 1.7461202854619806 63 92 96
-0.2467481492003214 -0.4785433653860675 1.7545732459576533 88 106 116
-0.0141452695102608 0.1596052902852524 1.1903849209153761 47 45 46
0.1135792163443621 -0.3631391614718535 1.1620511320857683 154 159 191
0.3859055006148819 -0.2355910743216482 1.5105788330734906 47 19 31
0.0580688921207895 -0.2885373841369315 1.1060689154864571 187 174 122
-0.5197514627581987 0.1235930795304398 1.2274892720276416 53 33 44
0.1304956996909571 0.1890569008555490 1.1678391574480134 98 87 81
0.1851571700516449 0.1595817821532297 1.1928680067597888 75 53 65
-0.4375911852727493 0.1347280252327000 1.2305063541236756 107 71 83
0.1662781446389499 -0.3204260099385480 1.1977334354999525 181 170 90
0.1985758405210694 0.0545436899792507 1.2825504860450008 58 38 39
-0.5236486944111758 0.1181282102707434 1.2420650931409385 110 113 118
0.1396597095989421 -0.3183683516525755 1.1806269247666901 145 142 163
0.1486802274011866 -0.3052961112748027 1.1730966431567940 186 159 88
-0.4098475836391239 0.1298321132864866 1.2212226632073635 71 28 47
0.1279597214046216 0.2512965173777737 1.1167714165829243 118 58 83
-0.3959061429844534 0.1313750812130617 1.2252340898704015 120 106 123
0.3387982644127115 0.0557266143728403 1.2783738727729357 86 63 81
-0.1103985299512380 0.1886504462593494 1.1711938186015605 111 97 71
0.4177330443728390 0.2035156640844406 1.1529207019193448 82 63 67
0.0618310969953149 -0.2697601261126500 1.1123319947622241 80 75 95
0.1327575927914035 0.0052710366579915 1.2814177250606205 145 110 42
0.1283617008484241 0.0138595788340517 1.3041598795812863 40 22 10
0.2880173901183978 -0.2226941335189822 1.5073914228036427 94 92 95
-0.4523360925626138 0.1425332001243796 1.2156342000175646 84 79 86
-0.3738723309346610 0.1223018172893769 1.2284702094244366 74 36 61
0.0634692905134893 0.1683169958363240 1.1875446481628018 113 101 87
-0.4003938652714732 0.1525811812406581 1.2117675604740044 71 30 48
0.1014426323437546 0.1901576279737119 1.1667865863360771 116 104 106
0.1851229622676740 0.1285553005119622 1.2202857885661140 98 108 109
0.1018921818397202 0.2573353956931946 1.1110950148830370 119 69 96
0.2808824226913463 0.2039339822926248 1.1559377960902706 98 102 105
0.4296889781714466 0.2041455876024551 1.1511263679954173 120 111 130
0.2122499391441057 0.1335809360780262 1.2158466614995693 102 109 119
-0.4805435799257891 0.0934489062559132 1.2604311752344348 71 28 45
0.1492390068425054 -0.3113755505160966 1.1835408871563400 43 43 43
-0.4228793223282634 0.1459811591728612 1.2144700255857708 77 28 47
0.1604967805775905 0.1389672728453931 1.2094662665354536 103 92 88
-0.0910594105610878 0.0467907364346128 1.2454880694866406 81 34 42
0.3176588870154018 0.0912530532698995 1.2481174973568081 54 57 62
0.2486092046889877 0.2164382196526141 1.1416804200661101 45 32 39
0.0611601554384728 0.2337441010910121 1.1311882882883857 104 97 91
-0.5128208908197329 0.1105329719393978 1.2438405711703737 107 101 111
-0.2840372143793781 0.1540499545194214 1.1999308764589400 115 124 133
0.1767049819186181 -0.2159535321703340 1.1398808719962352 189 171 125
0.1436477147166891 -0.3884609667827940 1.2740457005053472 169 103 42
0.1605393521861301 -0.1842276166883109 1.1586299386593371 142 87 30
0.2718222973103032 0.2383995082576269 1.1235924620526914 113 117 126
0.2482352594839712 -0.3251812780718931 1.5947341604616456 49 18 33
0.2694710171894738 -0.2035291301659209 1.4872869198878254 37 37 35
0.3618769518359282 0.2169801419868600 1.1404080669906460 80 95 98
0.2933993702023229 -0.1232062513414696 1.4268934745556456 93 94 98
0.2564914890794958 -0.1570245785906241 1.4555569732406695 57 14 23
0.3231975111324709 -0.0525816946092903 1.3501868653346418 47 46 42
0.1327017959650202 -0.3501265879437201 1.1844691746004059 147 148 178
0.1055291436511596 -0.3505223647485944 1.1494269774297976 172 164 117
0.1466455711005983 -0.3167208133792745 1.1804684738851832 42 38 52
0.1645653311717380 -0.3442791766755840 1.2117576507015151 74 64 63
0.1558983429850425 -0.3582419046463070 1.2185926559652107 62 52 51
0.0467960471471062 0.1541264105569287 1.2019849502405138 120 89 71
-0.4695006614594653 0.1493254273426206 1.2054108303302467 34 31 38
-0.9165163297605847 0.1379977609711204 1.2180056383374527 37 44 54
0.1263364351859314 -0.3850671650396511 1.2055890758948036 166 149 121
-0.0573728940701850 -0.4200829109389295 1.1619376071375953 169 166 185
0.0012656853578899 -0.2520001793924118 1.0887594877876217 144 151 179
0.1333660327571230 -0.3194117918068851 1.1693524123721486 143 142 160
0.0750339885852762 -0.3289043172950905 1.6077831998152390 146 117 145
0.0730668076513864 -0.3237746541416276 1.6035006690829690 126 86 110
-0.0780738359144656 0.1061303748567595 1.2374303153153747 60 48 50
-0.5380936229494951 0.1944791669504321 1.1705957763693009 53 43 51
0.0089939304014271 -0.2268473219302872 1.0995751143479440 151 160 189
-0.9062619057061319 0.1358633015509721 1.2240051466999822 92 92 102
-0.2533846428249766 -0.5178951169485907 1.7832059403087352 59 58 63
-0.0017862034027895 0.2085804695374840 1.1518516715758189 106 107 91
0.2004762065126348 -0.2681486947883887 1.5503416722002805 113 94 87
0.2411790715101108 0.2280891450170464 1.1329638040268921 52 45 52
-0.6173552471963507 0.2031506407591781 1.1631716932775658 29 27 32
0.1672772185785374 0.1488081600614259 1.2019728822234608 58 39 45
-0.2421683173581189 -0.5092608647871169 1.7749102132380221 28 27 32
-0.5592799006395928 0.1535678026913383 1.2080915669618408 41 35 37
0.4361429265530897 0.1963286055796690 1.1575189226498299 57 48 49
0.2190652393826700 -0.1350334081735686 1.4157051974963419 36 33 18
0.1391903388578580 0.0225161042932502 1.3134406787374393 89 78 82
0.3849464359654809 -0.2310745909368421 1.5042692239475535 103 72 88
0.5347434419962234 0.1850113615669023 1.1680929708074643 104 87 77
-0.2563428742033844 -0.4282346183117327 1.7143038169130329 24 29 32
0.2356359637026108 0.0693549901005295 1.2706621832530514 34 32 35
0.2357689294288273 0.0693565958823115 1.2706852172942789 40 38 39
0.2680017273647364 -0.1000911214151252 1.3983247675016968 27 26 21
0.1204936279613688 -0.3766405208967341 1.1899701047780156 157 158 189
0.0360989015815723 -0.2201453878987350 1.1083209197053228 161 167 203
-0.3594959909017706 -0.4359713609977505 1.7603917390419814 83 82 88
0.0832940253143671 -0.3339836585339382 1.6115418211988279 111 88 114
0.1222711080671846 -0.3045390406984044 1.5882761185732426 118 99 118
0.3308667036818718 -0.1032245939527756 1.4145738274882842 73 67 71
-0.5306112268178443 0.2031221813374267 1.1736449752961156 96 104 117
0.2051235997230961 -0.2716533908406242 1.5543056262282822 115 100 103
-0.4481948936384901 0.1482074506170157 1.2028430665983227 110 120 121
-0.4452978943913485 0.1464324098020895 1.2010359766166172 98 105 113
0.4444053297971657 0.2134643467391572 1.1450903231063341 68 31 23
0.3456574222759108 -0.1988095959636826 1.4735417535553994 103 60 77
0.5335265536500873 0.0804405886208365 1.2500024124033371 100 71 99
0.3278308391835091 0.0853083801600775 1.2503478266577546 60 68 71
0.6142069744514195 0.0378268934007379 1.2841913176275155 99 85 100
0.1662240412672469 -0.2990384821634139 1.5799421463513796 110 98 98
0.4807001725028736 -0.1396995374911194 1.4228523336850558 103 84 103
-0.4710146254082653 0.1746777151327001 1.1850955965323826 31 31 33
0.0446507727768099 0.2613295703391744 1.1084574787932986 84 66 42
0.1008095945016346 0.1656599256508366 1.1884138021742516 63 49 48
0.5463522818725639 0.0068876780033710 1.3121613097984490 69 45 61
0.4732489627814332 0.1603097353209633 1.1905972614652862 32 22 30
0.5397011197469731 0.1474124757638998 1.1989206224657205 114 104 105
0.6039843027657867 0.0231663193240434 1.2923631339512338 109 86 112
0.6525941287611499 0.0216415639412501 1.2973332015098971 71 65 77
0.2850995652668888 -0.3542560011364086 1.6202763094932062 76 66 54
-0.5294228070617385 0.2102218124285492 1.1558784826329891 57 34 44
0.1504903238279497 0.0260489468250063 1.3111693992051794 63 54 55
0.0667598113730802 0.2567029873647135 1.1117487888647581 109 103 113
0.1098935052606559 -0.3235794672133961 1.6023943530627853 117 94 122
0.3192151642125576 -0.0850278219531987 1.3985549678028690 46 27 31
0.2313023672620270 0.1137391932658878 1.2245031639559090 45 40 37
0.3032832820589027 -0.0227806166660201 1.3562107273240489 44 40 39
0.4514684197620020 -0.2851560899462167 1.5620430775977177 92 84 82
0.3472721275725230 -0.0560714831695696 1.3754642628711711 69 74 77
0.2469562228301187 -0.3244704657307609 1.5962005611409289 49 18 33
0.1469717079732431 -0.0214144394991936 1.2592281946929844 173 131 45
0.2283443469613982 0.1573330572388228 1.1936882152540054 83 68 73
0.3282234030908582 -0.0327716609406029 1.3565097500962675 71 68 75
0.2524686065573203 0.1287900836934585 1.2188851619409429 88 97 102
0.0973522409794899 0.2436290267222310 1.1223950763085078 77 24 42
0.1627800989031132 0.2097602248265380 1.1496322828992234 116 96 108
0.3186926907312034 -0.0858268072346188 1.3998258946342352 53 26 31
0.5114881351071284 -0.1224147650778900 1.4088033419651733 41 18 26
0.4268530466950929 -0.2871369314519484 1.5703156602375707 68 25 35
0.4233227148713091 -0.1857188116348908 1.4573859671320957 97 79 95
0.3382683258528059 0.0160824287142233 1.3092315378003705 110 91 110
0.3589641016647002 -0.0298910048966474 1.3511999175065861 46 15 30
0.4824718405807254 -0.2233026152400896 1.5014742061329465 50 17 24
0.4764145126307729 0.1195909893570957 1.2209498226533213 94 72 95
-0.4952901939096938 0.1420382602392832 1.2388339681886964 91 49 69
0.4495786208249992 -0.1558149812575045 1.4340772590457485 101 79 92
0.1442504898110064 0.0453744827411321 1.2807140111948594 23 19 16
0.1313238632877883 -0.3496934200275079 1.1853404662365095 151 155 190
0.4718165105196073 0.0485273599750464 1.2841692866035639 66 22 39
0.1578585801853061 0.0106695912872475 1.1858720546040704 201 182 116
0.1237759751495417 0.2269591908012791 1.1233835853382519 93 43 44
0.0116446023494588 -0.2120678357349982 1.1072967155839508 56 53 62
0.1509070638453558 -0.3435897693435795 1.2124420076042624 150 151 181
0.2462775469382819 0.2314936639690502 1.1299389083534699 46 47 49
0.5871694575243811 -0.0778411318997841 1.3749057004808007 84 77 84
0.5932853206697732 -0.0739616594608474 1.3736956050036240 83 75 88
-0.4213702365200345 0.2367465984244047 1.1277467260826428 110 103 111
-0.4141857580101591 0.2583523201439816 1.1161053015301987 108 101 109
0.1305858700594992 0.1891206957128404 1.1678869121212641 98 87 81
-1.1006112143022850 0.2261621399748370 1.1727103736442461 69 86 106
-0.4479886691580562 0.2412133093207888 1.1344409578730965 77 36 50
0.1392676389917188 -0.3071311204982871 1.1662670149779681 196 167 97
-0.5376251646314549 0.2518026070793570 1.1197991295019789 56 56 54
0.1540305199204753 -0.2775642138915700 1.5627420070227169 108 71 78
-1.1732425568981013 0.2755584138747793 1.1583146802482636 83 97 106
-0.0086343630267084 -0.2718446547618110 1.0846886055653129 173 165 128
0.5915120505453891 -0.0794877551725800 1.3767224907997593 36 34 37
-0.2540506921420441 -0.4158250226695349 1.6974289275490306 98 88 112
-0.4017891245603416 0.2453431632893460 1.1172177161666186 106 100 110
-0.7019585462768543 0.2730726218955685 1.1052339916881269 66 34 35
0.1662102619339249 -0.3199923038819097 1.1983501456970094 188 175 107
-0.5840700507517963 0.2351576577322749 1.1327183657863087 108 104 105
0.0114923306286585 -0.2727258822478767 1.0900535188189657 152 159 188
-0.5542334437235232 0.2136245851716543 1.1515913197762948 106 106 114
0.0900684546380448 -0.3247778531164602 1.6038473116144185 88 32 61
0.1289833883369571 -0.2956325499432901 1.5818191765594189 64 45 49
0.1379839955491995 -0.2882428156124622 1.5740130822224712 112 79 100
-0.2710514670359497 -0.4304723992419930 1.7121174297212469 103 98 121
0.2089284794114724 -0.2638501979325567 1.5480225769126532 59 29 31
0.1250960613430298 -0.3271171405029183 1.1618610636718596 147 142 165
-0.5095742076219345 0.2214220259511837 1.1537718031635551 97 85 99
-0.0881814902650906 0.0960636351656675 1.2424331173615557 38 38 38
-0.0655297696663634 0.2051405836236875 1.1576906694209566 39 29 27
0.5187558154060244 0.1347196557904059 1.2127774406640748 115 100 105
-0.4716798697882889 0.2216806720054483 1.1532089192151642 90 34 63
0.5605071201953273 -0.1793206234266550 1.4655949668475843 26 20 20
0.5688398555247846 -0.1703583290822633 1.4563778307386108 73 71 72
0.5840459438243932 -0.0849313885431977 1.3787221731823995 41 28 35
0.1104550955943526 -0.2984721368520000 1.5844959936403435 117 97 125
0.4933374698349776 -0.2714192169504017 1.5504494332106862 36 21 24
0.1290066091176746 0.0935806736771905 1.1944508106228959 79 26 32
-0.4197804128978207 0.2369595445070398 1.1332034252416650 94 92 95
0.3380972800506367 -0.0950170990733691 1.4036699641222734 67 65 70
0.2275178542957033 0.1707031467941471 1.1815003062134175 106 112 124
0.5924183313340171 -0.1886097022105884 1.4774710966047473 65 65 65
0.5267442841875538 0.1572474393192859 1.1913440114707594 79 62 46
0.6183928068556074 -0.1157438581034795 1.4056352542166983 19 17 18
0.1179003952017001 -0.4245933031515233 1.2838873255469681 224 190 118
0.1546139511966323 -0.1798326836584536 1.1419888334019650 158 128 68
0.1973203698742079 0.1954475965025205 1.1635782910009942 101 72 76
0.5718186472531849 -0.1835261588418749 1.4703348013717865 27 18 19
-0.0660783417633411 -0.2535884497702108 1.0982017170602225 183 178 136
0.5569388587976222 -0.0862354091986890 1.3742509052287408 102 91 107
0.5248461083210711 -0.1139845299175000 1.4002705214712046 44 12 25
0.5735414278120301 -0.0008707434120522 1.3131619878599314 88 79 98
0.1497448984999092 -0.3010129230178029 1.1772077818589188 158 138 77
-1.2105334651097195 0.3487020518913627 1.0627607825912284 32 32 42
-0.4956658217000672 0.2912263356459750 1.0818922757627516 110 95 102
-0.3185540719770308 -0.3738729426075038 1.6659188585252371 113 85 108
0.1829516484549423 -0.3522031235392932 1.1968560081352841 60 53 60
0.0752652607814474 -0.3291607918132728 1.6073253008228769 146 117 145
0.3011440915059961 -0.2953301802857911 1.5675451815446273 36 42 38
0.2414178951752893 0.2207582575808567 1.1380269158400274 79 73 75
-0.3883619685598581 0.2919258633506257 1.0884104981390796 68 51 59
0.5630985708997911 0.0739398079242396 1.2597564149361924 106 85 104
0.0353965734241703 0.0883085068374222 1.2518382060628626 112 90 93
0.0173800037917937 0.2742743494905741 1.0992002089868949 79 45 17
-0.3295018335086957 -0.3586552381419877 1.6526643061653745 109 91 113
-0.1648612172513867 -0.3487466658837819 1.6384407874197007 82 68 83
-1.3593282537878220 0.4179179545244474 1.0338354438977975 81 88 104
-0.4863894752113651 0.2769745413060840 1.0760451563270712 88 82 82
-0.3766118443213028 -0.3708654707969712 1.6695475732184732 95 84 88
-0.3219210866962752 -0.3851185819195629 1.6745964077804467 69 36 55
-0.2970232678101782 -0.3700232637304433 1.6484213046306471 68 35 62
0.0522072196160246 -0.2957612387673731 1.5802415647326173 37 35 36
-0.4284423163875345 0.2500401720027051 1.1196068174609315 74 35 54
0.4634559746083309 0.0715469332747596 1.2621474444778482 111 79 100
-0.3023140588681841 -0.3923706032344510 1.6849393597154723 108 101 119
0.4636245494019932 0.0713391891797447 1.2620793410483642 111 79 100
0.2139952813113598 0.1322016007963676 1.2151618115167910 105 112 118
-0.3676777821187313 0.2792895926839293 1.0968190367768196 121 118 137
0.6065315179220263 0.0147174722770358 1.3001746376615260 65 40 59
-0.6361100113282009 0.3159324504905145 1.0753685104805562 80 37 47
0.6736169732435597 0.0167408884248387 1.3039483813494452 87 90 99
0.4251004595853191 0.1260846830243738 1.2165355083798894 38 21 29
0.6432098489695970 -0.1781966649590888 1.4702338146389464 26 20 22
-0.3825609146312105 0.2676775832374798 1.0965335342498250 82 30 53
0.2711120708288022 -0.2046672064233566 1.4504349047793335 38 22 22
0.1511955335719022 -0.3123182365713677 1.1821978022769066 43 43 43
0.1438226241660737 -0.3859639024065223 1.2863911654620437 174 115 49
0.0354878024475173 0.0473339195613466 1.2709269892965029 101 50 65
0.0780788640224822 -0.3150726609267823 1.5981924641067504 74 26 50
0.5883584916585316 0.1256473710483228 1.2182761825887682 108 97 111
0.6648274057486949 0.0209664529690171 1.2995021712672175 33 27 31
-0.4555071859561347 0.2923918015744156 1.0816515008868759 55 19 33
0.1270451955944622 -0.0200483129020243 1.2246099033014217 191 163 79
0.4707866309588696 0.1356985424089606 1.2057917677373373 39 28 32
0.1246336322435474 -0.2558341096585318 1.0977377403293049 36 36 36
0.1502437210277721 -0.3010289815055913 1.1489058507564056 222 189 122
-0.0733597413114592 0.0656100476055880 1.2348303029621903 90 56 73
0.1520831298988297 -0.1781966304377313 1.1435139984200986 149 124 58
0.2139365896144305 -0.2791486527324302 1.3136520347227778 195 162 91
0.2331794064111071 -0.2977619319093589 1.5799927169137089 93 108 115
0.1978845237591086 0.1950520900316877 1.1635404256652440 101 72 76
0.3437375609702298 -0.0658254124846511 1.3831289066665000 78 80 79
0.1615163839879246 0.0067299915188755 1.1823499796593266 201 182 116
0.4372852763448459 0.1346670342621127 1.2086874825889178 41 21 30
0.1203470454060755 -0.3351552989798678 1.1902815558360937 151 152 180
-0.0630213505468882 -0.4160251895803276 1.1603187285464098 163 174 178
-0.3586504962235458 -0.3423018251569399 1.6430649319559532 65 45 54
0.1507895189801051 -0.2955700010231173 1.1757320829765512 165 134 69
-0.3417600978514108 -0.3583479238082285 1.6526061059225163 57 37 49
0.3791800806750478 -0.2375695110116125 1.5132251889783490 101 69 82
-0.2077476430752273 -0.3437449862472723 1.6323573778485629 114 80 107
-0.6458369793271873 0.3446171317856114 1.0267209528434438 100 72 71
-1.0377054467889246 0.4333582132437127 0.9693871757796280 113 97 110
-0.3488166872467802 -0.3509779808446871 1.6474237514061287 74 54 63
-0.6983909676083161 0.3996928935888314 0.9967174701124587 57 40 46
-0.6875293505486634 0.3536051268417026 1.0275186296166152 121 82 103
0.0202345817039676 -0.2809725747745327 1.0926235438231393 146 152 178
0.1151316537660726 -0.3356783336534440 1.6126911183336952 47 38 41
-0.3389383442453878 -0.3527359367460963 1.6482732868764238 118 100 124
0.1227185556021674 -0.3881262019576197 1.2010716535333816 170 150 99
-0.2608168686450223 -0.3415844184323369 1.6310357996239897 65 48 80
0.1494147557964938 0.1840810309724257 1.1704269012806319 62 50 52
-1.3834869807994739 0.5038596174703993 0.9223117718876898 63 42 73
-0.6482692106848735 0.3892954133726491 0.9962499536552459 64 60 61
-1.1271778057433277 0.4649722950703127 0.9461564778273482 46 45 61
-0.1510365183041479 -0.3328525714120276 1.6216479641333263 96 81 110
-1.0690941464301804 0.2191805177507175 1.1774866348853013 44 33 47
-1.0236339294610541 0.4148284500017644 0.9827468476793777 66 39 48
-1.0152934976733186 0.3919737692949476 1.0050014861280894 61 35 38
-1.0082512609545193 0.4514314964069027 0.9514591305688264 110 87 105
-0.8293033774581532 0.3581143583015732 1.0330605153901840 49 29 41
-0.6649886476420864 0.3675124817275233 1.0189864927752286 121 93 90
-0.3673059922512973 -0.3395592104033074 1.6367029364142478 65 35 47
0.1383498748933137 -0.3710734521319166 1.2048182361172581 161 167 201
-0.1889088299003816 -0.3386088473500967 1.6263425318830897 119 101 127
-1.3912863602795302 0.4485068190395091 1.0059158637390853 84 91 107
-0.6042684637709510 0.3606928067701455 1.0212984940269836 54 23 20
-0.4340083025747521 0.3148961579598656 1.0631984156561312 86 48 73
-1.1481979813607226 0.3874798346482944 1.0176140539876146 48 49 53
-0.9019419346201816 0.4108195502124543 0.9879826204436567 64 33 49
0.2827129919134017 0.2002949249283299 1.1551472142849091 112 108 105
-0.8015971942106349 0.4106026817971630 0.9772491854460673 94 96 108
-0.6883026704378477 0.3704370608439287 1.0097620913795664 66 34 47
-0.4823695143469173 0.2831141384539936 1.0896532738697466 41 37 38
-0.4735837732290945 0.3034008562553108 1.0670782342704010 104 103 108
-0.2897552360426048 -0.3504550323060174 1.6467486494230623 105 107 128
-0.6386885488499932 0.3429017090800156 1.0399314364445060 70 37 44
-0.5085945057284912 0.1863299371334059 1.1716114240024649 96 102 114
-0.3986267324543586 0.3274507919564428 1.0573818182182697 80 28 50
0.4317502801178913 0.1599156364974152 1.1907537420713767 79 86 94
-0.0594434555020499 0.1583509832189439 1.1919539354606907 94 88 88
0.5252185062205165 0.0946701185987254 1.2464727442668291 82 74 97
0.1470780688577142 -0.3092635644250011 1.5855128846376789 48 39 40
0.4068152565525291 0.1297030467219082 1.2100272572452868 82 101 107
0.1416335904909699 0.1880788028686523 1.1583543430291297 79 36 53
-1.1409857850495138 0.1997044008776777 1.2442918722854135 25 29 32
0.2943290573879269 -0.1252211946251952 1.4263774441260035 75 73 78
0.3234888668588186 -0.0545225049682600 1.3872988125122987 42 42 42
-0.6154834243338702 -0.2489335720867639 1.6151691800557089 71 72 77
0.1545499509998309 -0.3592117493405417 1.2210896198413825 177 168 111
0.1715197292615140 -0.3846610511931218 1.6539755897125823 56 51 48
0.2421034069360270 0.2075083754205028 1.1417242979488940 59 54 60
-0.2017725359644048 -0.3418964175914864 1.6338054159988977 73 39 66
-1.0741024388280369 0.5286398252910463 0.8867666524366087 105 87 111
-1.0312587645730487 0.4637316552771193 0.9384241903693008 69 48 63
-0.2262673201244603 -0.2958118052207792 1.5968780457205505 108 72 98
-0.2109543794546823 -0.3091086431363437 1.6041539070530264 105 85 113
-0.2713808964036173 -0.3198292004887900 1.6148102438201115 115 80 113
0.0014311282692202 0.1508670790806324 1.1999031298691032 77 49 38
-1.6273630971980011 0.7619485496071758 0.7064996723864108 70 69 101
0.0195935784162000 0.2958639571061420 1.0774988946623922 49 46 41
-1.2859392633383586 0.5510672869107361 0.8735184226169140 46 44 65
-1.1938903431018810 0.6300855998020404 0.8044144065719899 120 101 133
-0.3950184341388056 -0.2924583354007310 1.5905494466750274 102 88 101
-1.1986308189359520 0.5942976199457911 0.8342399216171786 118 99 127
-1.1467708161267025 0.4846201861017972 0.9275481372906038 50 46 61
0.4747801283926864 0.0139726681437313 1.3117687692870714 113 97 100
-1.4635891773410756 0.6087885185681887 0.8197481675486249 65 42 71
-1.3030218586552189 0.6155162251620035 0.8323083942056222 119 115 142
-1.2247225803870803 0.6273278873502762 0.8076902134303663 72 38 73
-1.0697293053613102 0.5994713531408462 0.8268592595939215 99 111 127
-1.0404894160901617 0.5079178264987866 0.8951705929666633 61 41 69
-0.2391112745699394 -0.3074419402536820 1.6176416866973047 109 90 122
-0.9831183374003184 0.4513560406920980 0.9515311218574241 69 38 53
-0.2173144992576271 -0.3230699076485520 1.6192828062078544 77 25 63
-0.7948031163867144 0.4545618169354788 0.9497960767606006 50 45 51
-0.7093868413437282 0.3897176371628362 0.9985377001518124 111 93 105
-0.2018699680446356 -0.2986165492108544 1.5950504832156593 74 24 51
-0.6607174415734965 0.3374293542303838 1.0407571332699261 107 84 92
-0.1517266573776227 -0.3325082783282045 1.6220600667503768 96 81 110
-0.0445158445686454 0.3296074165749349 1.0508505035439564 66 31 51
-0.1168719752035609 -0.3106027991938436 1.5998086860591099 91 67 93
-1.3769448434228948 0.5502857577819938 0.8735967722234527 52 38 63
-1.3486484726156192 0.6854709389128695 0.7575632801705730 57 59 82
0.1169671367140212 0.2739074238717342 1.0915956069569852 124 109 116
-0.7745891332333387 0.4948247468912754 0.9081704693694055 83 46 64
-0.2065793934541482 -0.3172856841112000 1.6090608155134185 71 32 61
-0.7723372945967391 0.5115647032610057 0.8978353126120557 63 31 55
-0.1795998984313348 -0.3093984767079896 1.6020257460220222 111 73 98
-1.4308898160500398 0.5771944391231846 0.8474098461495695 63 39 65
-0.1862920960362719 -0.2843300354901033 1.5824826221053541 103 79 105
-0.7567230049478505 0.5009091701339752 0.9172608858316533 113 119 133
-0.1588519382945866 -0.2972918255477185 1.5926152239054285 104 78 105
-0.5395354236127822 0.4413213421889112 0.9404455023043392 122 123 128
-0.5533300856367267 0.3988026502112459 0.9872087255983863 59 55 54
-1.0730775595545026 0.3972768003387936 0.9889246102394874 44 29 32
-0.6373165571640306 0.4593688682628271 0.9488627731352046 65 70 66
-0.5052894197748838 0.4315924857129278 0.9608045748519025 72 67 61
0.1553931961489641 -0.2856568457129240 1.1779209974146114 47 37 27
0.1507672121521703 0.2393693875955472 1.1269934811900790 71 19 42
-0.1779787660191178 -0.3189855652223372 1.6155546530248723 61 18 38
0.5704368952524140 0.0354239123596545 1.2814545287156103 61 24 42
0.1260329108843520 0.0176555920790170 1.3049668420886269 44 21 15
0.1059252166636104 -0.3203792050261369 1.6068294626853357 117 94 122
-1.4670276300978649 0.6816079697961882 0.7639367852116510 88 59 81
-1.0619177661442836 0.4704588494875993 0.9244292501829087 99 115 131
0.4548943228114969 -0.0173105415387228 1.3363931592471969 100 101 105
0.1231321920791424 -0.2546953976572375 1.0988342653727703 36 36 36
0.5340998447142599 -0.0457591619781742 1.3487629003018393 73 29 52
0.3143866560196658 0.0650995609552613 1.2699167830316620 32 20 24
0.3070010666232019 -0.0440708448750043 1.3650792507632852 37 33 30
-1.3033260738020453 0.4967338014716677 0.9434569091422338 93 101 114
0.1501609678170536 -0.3205770181470252 1.1844948789927292 144 139 145
-0.2141489333727767 -0.2743848042497558 1.5706629604176792 100 88 102
-0.7982853617600157 0.7136239902677880 0.7259782554222689 133 135 150
-1.2959220523250119 0.7623129136089924 0.6967276034765594 76 65 82
-1.0619263222549440 0.7578905900156742 0.6974914569549929 112 104 125
-1.0467231492619700 0.7411597623232985 0.7145329714047478 66 51 70
-0.9172697943441187 0.6240073207213674 0.7995886992462823 119 128 137
-0.8444076278177953 0.6724919391417720 0.7540463905873650 125 121 136
-0.5732718241681166 0.2287487392855987 1.1431675724335146 50 42 39
-1.5551358759154179 0.9848284099353016 0.5164866703792041 96 73 93
0.1579356239509029 -0.3198807162629524 1.1952456959969491 43 39 36
-0.2023679983983342 -0.2737264770729083 1.5748082706973496 51 19 34
-1.2149236966729080 0.7005592956311296 0.7442058608867392 72 55 74
-0.2076023234491303 -0.2883680640586848 1.5852518212057156 107 98 117
0.1653777225765691 -0.2988433408327587 1.5803213100236635 96 90 76
-1.3377935627018829 0.9400618726250938 0.5412298940105469 109 75 108
-0.7842543354539895 0.6563486038568210 0.7742555791847355 56 66 58
-0.5851647238942047 0.4893988815945877 0.9179441126064448 79 74 71
-0.5032194028286322 0.4954160329210255 0.9133506024911524 148 142 152
0.1143830981498163 0.2816773919744832 1.0929463601985372 83 84 88
0.3454178406745455 -0.0527790752514347 1.3772202436495788 81 85 84
-0.6250663070522290 0.6088080899971793 0.8100420434510844 96 52 77
0.5172687151785395 -0.1321529712052935 1.4174817500529155 127 100 109
-0.3465854445677488 -0.1286264048161680 1.4491289480059610 59 58 53
-0.3529652681993642 -0.1288480825714453 1.4504431583560804 101 106 109
-0.7009021662051288 0.4028469980093189 0.9966891516694031 72 42 44
0.1654146698768809 -0.3211675528768406 1.1968911933701387 179 161 87
-0.8339979972924666 1.0005662379732343 0.4837723439064740 73 59 74
0.1668275051687240 0.2400439932108501 1.1244052024543332 82 50 55
-0.9597424021504976 0.6038860377955687 0.8108091261403582 77 54 62
-0.8462152208105548 0.6757568245150738 0.7536711141290574 125 121 136
-0.4344411984277521 0.7853964652733713 0.6557119816426173 101 66 47
-0.6369425880858148 0.3535485404354555 1.0223857505049947 65 36 32
0.1594977145515669 -0.4012500845535902 1.6675837688899604 105 106 90
0.1207364675236479 0.3339372040136347 1.0490548043727215 116 115 113
-1.2265773433925322 0.9733804164825430 0.5118120774529858 89 57 78
-0.8729580726983442 0.9867679492702482 0.4990218430764880 82 70 90
-0.6142433043425136 0.3721638267846909 1.0206833536362083 52 27 20
-0.6802706162228550 0.7717979359703387 0.6715956062809814 128 141 157
-0.7098974104020690 0.6774650997370010 0.7555382589923254 140 126 125
-0.2022768548032877 -0.2753067523552121 1.5738448594809793 51 19 34
-0.1818123388121657 -0.3064531549534979 1.6024909273629697 97 63 87
0.1258098698928149 0.3087452552564103 1.0656915764092694 52 57 53
0.4183975656941150 -0.0765043747284995 1.3873039086581258 113 106 114
0.4581033895951736 -0.0885965903603618 1.3864151255068877 100 93 101
0.4967695218940533 -0.0115123190881159 1.3308049238982651 81 57 71
-1.3511172397457050 1.1686099260183278 0.3437577470073675 80 76 101
-0.9639581974751416 0.9606844883780491 0.5239864494166120 88 84 107
-0.4825811566350416 1.0084241377731582 0.4796746502377937 90 50 59
-0.6645852305687283 0.7491791399514078 0.6933955758354702 96 96 104
-0.5372053054138755 0.7209965217872006 0.7082276522013355 153 142 140
-1.2761634023441086 1.2246296698085595 0.3032839755365014 96 74 113
-1.2002017098681608 0.7282030250968724 0.7252953091675676 78 54 76
-0.7224804906542540 0.7182489092313867 0.7251223054465987 75 75 63
-0.9044870204206972 0.4121959791834848 0.9882597839047291 67 36 42
0.0071091025073836 -0.2485248650986582 1.5463431820604767 73 64 65
-1.1807484037720797 1.3968518368610057 0.1377227881278111 141 147 171
