ply
format ascii 1.0
element vertex 1159
property float x
property float y
property float z
property uchar red
property uchar green
property uchar blue
end_header
0.244898 1.197279 -5.355102 228 218 207 
0.294314 1.177258 -5.265552 226 216 206 
0.344371 1.165563 -5.213245 229 220 209 
0.394737 1.157895 -5.178947 237 228 217 
0.444444 1.150327 -5.145098 235 225 215 
0.496732 1.150327 -5.145098 224 214 203 
0.545455 1.142857 -5.111689 210 199 183 
0.567901 1.086420 -4.859259 172 160 141 
0.609756 1.073171 -4.800000 138 126 106 
0.644776 1.050746 -4.699702 122 109 88 
0.684366 1.038348 -4.644248 109 95 75 
-2.781250 1.312500 -6.150000 93 139 201 
-2.718750 1.312500 -6.150000 93 139 201 
-2.656250 1.312500 -6.150000 92 138 200 
-2.593750 1.312500 -6.150000 92 137 200 
-2.531250 1.312500 -6.150000 92 138 200 
-2.468750 1.312500 -6.150000 92 138 200 
-2.298507 1.253731 -5.874627 93 138 201 
-2.238806 1.253731 -5.874627 96 137 203 
-2.179105 1.253731 -5.874627 96 137 202 
-0.807818 1.094463 -5.128339 234 223 209 
-0.748387 1.083871 -5.078710 231 221 208 
-0.579310 1.158621 -5.428966 123 104 87 
-0.524138 1.158621 -5.428966 134 114 89 
-0.472222 1.166667 -5.466667 146 128 99 
-0.343750 1.312500 -6.150000 228 213 200 
-0.281250 1.312500 -6.150000 184 169 155 
-0.218750 1.312500 -6.150000 200 186 173 
-0.156250 1.312500 -6.150000 209 197 184 
-0.093750 1.312500 -6.150000 197 187 172 
-0.029412 1.235294 -5.788235 218 211 198 
0.027972 1.174825 -5.504895 173 165 158 
0.083333 1.166667 -5.466667 126 117 113 
0.137931 1.158621 -5.428966 193 181 172 
0.191781 1.150685 -5.391781 224 212 200 
0.244898 1.142857 -5.355102 232 222 211 
0.294314 1.123746 -5.265552 226 217 206 
0.345515 1.116279 -5.230565 234 225 214 
0.394737 1.105263 -5.178947 233 224 213 
0.444444 1.098039 -5.145098 217 207 196 
0.495114 1.094463 -5.128339 188 178 167 
0.545455 1.090909 -5.111689 149 139 122 
0.595469 1.087379 -5.095146 124 112 93 
0.630915 1.059937 -4.966562 103 91 72 
0.800000 1.244444 -5.831111 82 69 51 
0.906250 1.312500 -6.150000 78 65 47 
-2.781250 1.250000 -6.150000 93 138 199 
-2.718750 1.250000 -6.150000 94 138 199 
-2.656250 1.250000 -6.150000 95 137 199 
-2.593750 1.250000 -6.150000 94 137 199 
-2.531250 1.250000 -6.150000 93 136 198 
-2.468750 1.250000 -6.150000 93 137 199 
-2.298507 1.194030 -5.874627 93 138 200 
-2.230483 1.189591 -5.852788 94 136 201 
-2.171004 1.189591 -5.852788 94 136 201 
-2.111524 1.189591 -5.852788 94 138 201 
-0.787302 1.015873 -4.998096 243 231 219 
-0.729560 1.006289 -4.950943 239 228 216 
-0.694534 1.028939 -5.062379 225 214 204 
-0.653595 1.045752 -5.145098 184 172 164 
-0.609272 1.059603 -5.213245 106 92 84 
-0.569492 1.084746 -5.336949 104 87 75 
-0.520548 1.095890 -5.391781 123 104 85 
-0.472222 1.111111 -5.466667 133 114 91 
-0.421053 1.122807 -5.524210 162 146 125 
-0.343750 1.250000 -6.150000 216 203 190 
-0.281250 1.250000 -6.150000 173 159 143 
-0.218750 1.250000 -6.150000 204 192 177 
-0.156250 1.250000 -6.150000 213 202 192 
-0.093750 1.250000 -6.150000 208 199 188 
-0.028674 1.146953 -5.643011 225 217 208 
0.027778 1.111111 -5.466667 152 142 139 
0.082759 1.103448 -5.428966 132 121 115 
0.136986 1.095890 -5.391781 201 189 177 
0.191126 1.092150 -5.373379 229 217 205 
0.244898 1.088435 -5.355102 229 219 210 
0.294314 1.070234 -5.265552 216 208 199 
0.345515 1.063123 -5.230565 227 218 206 
0.394737 1.052632 -5.178947 213 203 188 
0.442997 1.042345 -5.128339 170 159 145 
0.495114 1.042345 -5.128339 128 117 104 
0.547231 1.042345 -5.128339 103 93 75 
0.601307 1.045752 -5.145098 81 72 55 
0.781250 1.250000 -6.150000 61 51 40 
0.843750 1.250000 -6.150000 66 56 46 
0.906250 1.250000 -6.150000 93 84 72 
0.968750 1.250000 -6.150000 143 134 118 
1.031250 1.250000 -6.150000 214 204 189 
-2.781250 1.187500 -6.150000 94 138 199 
-2.718750 1.187500 -6.150000 95 137 198 
-2.656250 1.187500 -6.150000 95 136 198 
-2.593750 1.187500 -6.150000 95 136 198 
-2.531250 1.187500 -6.150000 95 136 199 
-2.468750 1.187500 -6.150000 93 137 199 
-2.298507 1.134328 -5.874627 92 138 200 
-2.230483 1.130112 -5.852788 93 137 200 
-2.171004 1.130112 -5.852788 93 137 200 
-2.111524 1.130112 -5.852788 94 138 201 
-2.156250 1.187500 -6.150000 94 138 201 
-0.779874 0.955975 -4.950943 237 225 213 
-0.725000 0.950000 -4.920000 235 223 211 
-0.675000 0.950000 -4.920000 237 226 215 
-0.643087 0.977492 -5.062379 226 216 206 
-0.601307 0.993464 -5.145098 152 140 131 
-0.556291 1.006623 -5.213245 88 73 61 
-0.515254 1.030509 -5.336949 110 92 77 
-0.468966 1.048276 -5.428966 130 111 94 
-0.416667 1.055556 -5.466667 155 139 123 
-0.406250 1.187500 -6.150000 199 186 172 
-0.343750 1.187500 -6.150000 194 181 169 
-0.281250 1.187500 -6.150000 162 150 133 
-0.218750 1.187500 -6.150000 211 201 186 
-0.124611 0.947040 -4.904673 215 206 197 
-0.075472 0.955975 -4.950943 223 215 207 
-0.027304 1.037543 -5.373379 218 209 203 
0.027397 1.041096 -5.391781 136 125 124 
0.082192 1.041096 -5.391781 139 127 119 
0.136519 1.037543 -5.373379 209 197 183 
0.191126 1.037543 -5.373379 234 221 210 
0.244898 1.034014 -5.355102 212 201 193 
0.299320 1.034014 -5.355102 172 162 154 
0.347826 1.016722 -5.265552 187 177 164 
0.397351 1.006623 -5.213245 159 150 133 
0.447368 1.000000 -5.178947 121 110 95 
0.496732 0.993464 -5.145098 103 91 79 
0.656250 1.187500 -6.150000 75 66 53 
0.718750 1.187500 -6.150000 58 49 40 
0.781250 1.187500 -6.150000 60 51 47 
0.843750 1.187500 -6.150000 68 59 57 
0.906250 1.187500 -6.150000 94 86 78 
0.968750 1.187500 -6.150000 157 150 134 
1.031250 1.187500 -6.150000 233 225 207 
1.093750 1.187500 -6.150000 232 222 204 
0.583219 0.418157 -2.165612 174 163 144 
0.605227 0.418157 -2.165612 163 153 136 
-2.781250 1.125000 -6.150000 95 139 200 
-2.718750 1.125000 -6.150000 95 138 199 
-2.656250 1.125000 -6.150000 95 137 199 
-2.593750 1.125000 -6.150000 95 136 199 
-2.531250 1.125000 -6.150000 94 136 200 
-2.468750 1.125000 -6.150000 93 137 200 
-2.298507 1.074627 -5.874627 93 137 201 
-2.238806 1.074627 -5.874627 94 139 202 
-2.179105 1.074627 -5.874627 95 139 202 
-2.119403 1.074627 -5.874627 94 138 201 
-2.156250 1.125000 -6.150000 93 137 200 
-1.968750 1.125000 -6.150000 94 138 201 
-1.906250 1.125000 -6.150000 94 138 201 
-0.722741 0.897196 -4.904673 237 225 213 
-0.672897 0.897196 -4.904673 241 229 217 
-0.630915 0.908517 -4.966562 233 223 212 
-0.597403 0.935065 -5.111689 208 197 186 
-0.554455 0.950495 -5.196040 135 120 108 
-0.506667 0.960000 -5.248000 105 87 73 
-0.461017 0.976271 -5.336949 126 108 93 
-0.408163 0.979592 -5.355102 152 135 121 
-0.358621 0.993103 -5.428966 208 195 182 
-0.292359 0.956811 -5.230565 176 163 152 
-0.236842 0.947368 -5.178947 153 141 126 
-0.176101 0.905660 -4.950943 213 204 189 
-0.124224 0.894410 -4.889441 218 210 202 
-0.074534 0.894410 -4.889441 234 226 218 
-0.025723 0.926045 -5.062379 198 189 184 
0.027304 0.982935 -5.373379 126 115 114 
0.081911 0.982935 -5.373379 145 133 127 
0.136519 0.982935 -5.373379 214 202 191 
0.191126 0.982935 -5.373379 238 225 215 
0.245734 0.982935 -5.373379 204 192 183 
0.300341 0.982935 -5.373379 165 154 143 
0.353741 0.979592 -5.355102 167 155 141 
0.402685 0.966443 -5.283222 132 121 106 
0.456376 0.966443 -5.283222 113 101 89 
0.593750 1.125000 -6.150000 87 74 68 
0.656250 1.125000 -6.150000 75 65 60 
0.718750 1.125000 -6.150000 72 63 61 
0.781250 1.125000 -6.150000 86 77 78 
0.843750 1.125000 -6.150000 110 102 101 
0.906250 1.125000 -6.150000 139 131 123 
0.968750 1.125000 -6.150000 196 189 173 
1.031250 1.125000 -6.150000 216 207 185 
1.093750 1.125000 -6.150000 198 186 164 
0.563536 0.397790 -2.174586 130 114 101 
0.579235 0.393443 -2.150820 123 110 91 
0.598639 0.391837 -2.142041 122 111 92 
0.613728 0.387618 -2.118977 136 122 101 
-2.718750 1.062500 -6.150000 95 139 200 
-2.656250 1.062500 -6.150000 96 138 201 
-2.593750 1.062500 -6.150000 95 137 201 
-2.531250 1.062500 -6.150000 94 137 201 
-2.468750 1.062500 -6.150000 93 137 201 
-2.298507 1.014925 -5.874627 92 137 202 
-2.238806 1.014925 -5.874627 94 139 202 
-2.179105 1.014925 -5.874627 95 139 202 
-2.135338 1.022556 -5.918797 95 139 202 
-2.156250 1.062500 -6.150000 94 138 201 
-2.093750 1.062500 -6.150000 96 140 203 
-2.031250 1.062500 -6.150000 96 140 203 
-1.968750 1.062500 -6.150000 95 139 202 
-1.906250 1.062500 -6.150000 94 139 202 
-0.722741 0.847352 -4.904673 233 221 209 
-0.672897 0.847352 -4.904673 239 229 215 
-0.626959 0.852665 -4.935423 229 220 207 
-0.595469 0.880259 -5.095146 184 174 163 
-0.552632 0.894737 -5.178947 150 136 125 
-0.503311 0.900662 -5.213245 116 98 85 
-0.453333 0.906667 -5.248000 125 107 92 
-0.398671 0.903654 -5.230565 165 149 135 
-0.343234 0.897690 -5.196040 216 203 192 
-0.288525 0.891803 -5.161967 155 141 133 
-0.231511 0.874598 -5.062379 147 135 122 
-0.176101 0.855346 -4.950943 208 199 186 
-0.125000 0.850000 -4.920000 224 216 209 
-0.075472 0.855346 -4.950943 235 228 219 
-0.025723 0.874598 -5.062379 178 170 164 
0.027211 0.925170 -5.355102 121 111 110 
0.082192 0.931507 -5.391781 152 140 135 
0.136986 0.931507 -5.391781 218 207 198 
0.192440 0.934708 -5.410309 237 225 215 
0.249135 0.941176 -5.447751 205 192 180 
0.304498 0.941176 -5.447751 174 162 147 
0.359862 0.941176 -5.447751 151 138 122 
0.416667 0.944444 -5.466667 126 113 99 
0.531250 1.062500 -6.150000 104 91 82 
0.593750 1.062500 -6.150000 116 104 100 
0.656250 1.062500 -6.150000 132 122 120 
0.718750 1.062500 -6.150000 134 126 124 
0.781250 1.062500 -6.150000 181 173 172 
0.843750 1.062500 -6.150000 226 218 214 
0.906250 1.062500 -6.150000 234 225 216 
0.968750 1.062500 -6.150000 228 218 202 
1.031250 1.062500 -6.150000 182 169 148 
1.093750 1.062500 -6.150000 176 162 138 
0.579235 0.371585 -2.150820 129 115 101 
0.592194 0.366083 -2.118977 131 117 100 
0.611260 0.364611 -2.110456 133 117 97 
0.632708 0.364611 -2.110456 133 119 97 
-2.718750 1.000000 -6.150000 94 138 200 
-2.656250 1.000000 -6.150000 95 138 201 
-2.593750 1.000000 -6.150000 94 137 201 
-2.531250 1.000000 -6.150000 93 137 202 
-2.468750 1.000000 -6.150000 93 138 203 
-2.307116 0.958802 -5.896629 93 138 203 
-2.238806 0.955224 -5.874627 93 138 201 
-2.187266 0.958802 -5.896629 94 138 201 
-2.218750 1.000000 -6.150000 94 138 201 
-2.156250 1.000000 -6.150000 95 139 202 
-2.093750 1.000000 -6.150000 95 139 202 
-2.031250 1.000000 -6.150000 95 139 202 
-1.968750 1.000000 -6.150000 95 139 202 
-1.906250 1.000000 -6.150000 95 138 201 
-1.843750 1.000000 -6.150000 95 138 200 
-0.677116 0.802508 -4.935423 239 230 215 
-0.645161 0.825806 -5.078710 241 232 218 
-0.603279 0.839344 -5.161967 222 212 202 
-0.552632 0.842105 -5.178947 161 148 137 
-0.501650 0.844885 -5.196040 125 107 94 
-0.448845 0.844885 -5.196040 133 115 100 
-0.396040 0.844885 -5.196040 190 174 159 
-0.342105 0.842105 -5.178947 219 206 194 
-0.288525 0.839344 -5.161967 149 135 128 
-0.233010 0.828479 -5.095146 146 133 122 
-0.179487 0.820513 -5.046154 208 199 187 
-0.126984 0.812698 -4.998096 234 226 218 
-0.077170 0.823151 -5.062379 227 220 211 
-0.026230 0.839344 -5.161967 161 153 147 
0.027211 0.870748 -5.355102 117 107 106 
0.082192 0.876712 -5.391781 160 148 143 
0.137457 0.879725 -5.410309 222 211 202 
0.193772 0.885813 -5.447751 236 225 214 
0.250000 0.888889 -5.466667 209 197 182 
0.307692 0.895105 -5.504895 169 156 138 
0.364912 0.898246 -5.524210 146 133 116 
0.430108 0.917563 -5.643011 155 143 129 
0.531250 1.000000 -6.150000 182 170 161 
0.593750 1.000000 -6.150000 211 199 194 
0.656250 1.000000 -6.150000 224 215 208 
0.718750 1.000000 -6.150000 224 216 207 
0.781250 1.000000 -6.150000 228 220 210 
0.843750 1.000000 -6.150000 238 229 219 
0.906250 1.000000 -6.150000 237 228 216 
0.968750 1.000000 -6.150000 213 200 186 
1.031250 1.000000 -6.150000 173 159 140 
1.093750 1.000000 -6.150000 181 165 143 
0.497110 0.369942 -2.275145 214 196 182 
0.513552 0.365193 -2.245934 225 211 199 
0.531073 0.361582 -2.223729 229 219 208 
0.592194 0.344549 -2.118977 136 120 108 
0.613728 0.344549 -2.118977 139 122 108 
-2.718750 0.937500 -6.150000 95 139 202 
-2.656250 0.937500 -6.150000 95 139 202 
-2.593750 0.937500 -6.150000 94 138 201 
-2.531250 0.937500 -6.150000 94 138 201 
-2.468750 0.937500 -6.150000 94 139 202 
-2.406250 0.937500 -6.150000 93 140 202 
-2.247191 0.898876 -5.896629 94 139 201 
-2.281250 0.937500 -6.150000 94 138 201 
-2.218750 0.937500 -6.150000 94 138 201 
-2.156250 0.937500 -6.150000 95 139 202 
-2.093750 0.937500 -6.150000 95 139 202 
-2.031250 0.937500 -6.150000 95 139 202 
-1.968750 0.937500 -6.150000 95 139 202 
-1.906250 0.937500 -6.150000 96 139 202 
-1.843750 0.937500 -6.150000 97 137 200 
-0.554455 0.792079 -5.196040 220 207 197 
-0.501650 0.792079 -5.196040 159 142 130 
-0.448845 0.792079 -5.196040 143 126 111 
-0.394737 0.789474 -5.178947 205 189 174 
-0.340984 0.786885 -5.161967 212 199 186 
-0.288525 0.786885 -5.161967 145 130 123 
-0.233766 0.779221 -5.111689 144 130 120 
-0.181818 0.779221 -5.111689 220 210 198 
-0.129870 0.779221 -5.111689 235 226 217 
-0.080000 0.800000 -5.248000 219 211 201 
-0.027119 0.813559 -5.336949 174 165 159 
0.027397 0.821918 -5.391781 124 112 112 
0.082474 0.824742 -5.410309 168 155 151 
0.138408 0.830450 -5.447751 226 215 206 
0.194444 0.833333 -5.466667 234 223 210 
0.251748 0.839161 -5.504895 198 186 169 
0.309859 0.845070 -5.543662 156 141 123 
0.368794 0.851064 -5.582979 195 181 165 
0.444444 0.888889 -5.831111 232 220 207 
0.531250 0.937500 -6.150000 236 224 213 
0.593750 0.937500 -6.150000 233 222 211 
0.656250 0.937500 -6.150000 231 222 208 
0.718750 0.937500 -6.150000 228 219 202 
0.781250 0.937500 -6.150000 221 213 195 
0.843750 0.937500 -6.150000 219 211 194 
0.906250 0.937500 -6.150000 225 214 200 
0.968750 0.937500 -6.150000 194 181 167 
1.031250 0.937500 -6.150000 180 165 150 
1.093750 0.937500 -6.150000 187 171 152 
0.473988 0.346821 -2.275145 229 211 196 
0.490728 0.342368 -2.245934 224 208 195 
0.507757 0.338505 -2.220592 223 210 200 
0.530324 0.338505 -2.220592 215 204 194 
0.545202 0.333797 -2.189708 187 172 162 
0.576871 0.326531 -2.142041 215 202 194 
0.592194 0.323015 -2.118977 185 169 160 
0.613728 0.323015 -2.118977 148 131 122 
-2.718750 0.875000 -6.150000 94 139 204 
-2.656250 0.875000 -6.150000 95 139 204 
-2.593750 0.875000 -6.150000 95 139 203 
-2.531250 0.875000 -6.150000 95 140 202 
-2.468750 0.875000 -6.150000 94 140 201 
-2.406250 0.875000 -6.150000 93 140 201 
-2.343750 0.875000 -6.150000 95 140 202 
-2.281250 0.875000 -6.150000 95 139 202 
-2.218750 0.875000 -6.150000 94 138 201 
-2.156250 0.875000 -6.150000 95 139 202 
-2.093750 0.875000 -6.150000 95 139 202 
-2.031250 0.875000 -6.150000 95 139 202 
-1.968750 0.875000 -6.150000 95 139 202 
-1.906250 0.875000 -6.150000 95 139 202 
-1.843750 0.875000 -6.150000 96 139 202 
-1.781250 0.875000 -6.150000 97 139 196 
-0.501650 0.739274 -5.196040 203 187 175 
-0.448845 0.739274 -5.196040 151 134 119 
-0.394737 0.736842 -5.178947 203 188 172 
-0.342105 0.736842 -5.178947 208 197 181 
-0.288525 0.734426 -5.161967 134 119 111 
-0.236066 0.734426 -5.161967 144 129 118 
-0.184211 0.736842 -5.178947 223 212 199 
-0.082192 0.767123 -5.391781 198 189 178 
-0.027397 0.767123 -5.391781 195 184 177 
0.027491 0.769759 -5.410309 172 159 158 
0.082759 0.772414 -5.428966 189 175 170 
0.138889 0.777778 -5.466667 228 217 206 
0.195804 0.783217 -5.504895 225 213 199 
0.253521 0.788732 -5.543662 170 157 139 
0.312057 0.794326 -5.582979 174 159 142 
0.380952 0.820513 -5.767033 227 210 197 
0.452830 0.845283 -5.941132 238 223 211 
0.531250 0.875000 -6.150000 233 221 207 
0.593750 0.875000 -6.150000 232 222 205 
0.656250 0.875000 -6.150000 233 223 206 
0.718750 0.875000 -6.150000 235 225 207 
0.781250 0.875000 -6.150000 231 221 202 
0.843750 0.875000 -6.150000 227 216 198 
0.906250 0.875000 -6.150000 223 211 197 
0.968750 0.875000 -6.150000 199 185 175 
1.031250 0.875000 -6.150000 197 181 169 
1.151291 0.826568 -5.809594 228 214 197 
0.472622 0.322767 -2.268588 225 209 195 
0.489331 0.318634 -2.239545 216 201 190 
0.508475 0.316384 -2.223729 216 204 194 
0.523677 0.311978 -2.192758 215 204 193 
0.544444 0.311111 -2.186667 200 186 173 
0.561210 0.308116 -2.165612 205 190 176 
0.576871 0.304762 -2.142041 223 213 202 
-2.781250 0.812500 -6.150000 93 139 206 
-2.718750 0.812500 -6.150000 95 140 206 
-2.656250 0.812500 -6.150000 96 140 205 
-2.468750 0.812500 -6.150000 95 141 201 
-2.406250 0.812500 -6.150000 93 141 200 
-2.343750 0.812500 -6.150000 96 141 203 
-2.281250 0.812500 -6.150000 96 140 203 
-2.093750 0.812500 -6.150000 95 139 202 
-2.031250 0.812500 -6.150000 95 139 202 
-1.968750 0.812500 -6.150000 95 139 202 
-1.906250 0.812500 -6.150000 95 139 202 
-1.843750 0.812500 -6.150000 94 141 203 
-1.781250 0.812500 -6.150000 96 141 200 
-0.289474 0.684211 -5.178947 131 116 107 
-0.236842 0.684211 -5.178947 136 120 109 
-0.027491 0.714777 -5.410309 161 150 141 
0.027586 0.717241 -5.428966 178 163 161 
0.083045 0.719723 -5.447751 205 190 184 
0.138889 0.722222 -5.466667 224 213 201 
0.197183 0.732394 -5.543662 196 185 168 
0.255319 0.737589 -5.582979 159 146 128 
0.317690 0.750903 -5.683754 209 192 176 
0.385185 0.770370 -5.831111 236 218 206 
0.452830 0.784906 -5.941132 232 216 204 
0.531250 0.812500 -6.150000 229 217 201 
0.593750 0.812500 -6.150000 233 224 202 
0.656250 0.812500 -6.150000 237 226 211 
0.718750 0.812500 -6.150000 240 228 215 
0.781250 0.812500 -6.150000 240 228 212 
0.843750 0.812500 -6.150000 238 227 211 
0.906250 0.812500 -6.150000 236 224 213 
0.968750 0.812500 -6.150000 227 213 204 
1.112782 0.781955 -5.918797 206 194 176 
1.151291 0.767528 -5.809594 227 215 199 
1.205882 0.764706 -5.788235 229 215 203 
0.489331 0.295875 -2.239545 226 213 203 
0.510638 0.295035 -2.233191 225 214 204 
0.530324 0.293371 -2.220592 225 215 203 
0.544444 0.288889 -2.186667 221 209 194 
0.561210 0.286107 -2.165612 219 205 189 
0.632836 0.310448 -2.349851 234 225 209 
-2.781250 0.750000 -6.150000 93 140 205 
-2.718750 0.750000 -6.150000 94 139 205 
-2.656250 0.750000 -6.150000 96 141 206 
-2.468750 0.750000 -6.150000 95 140 202 
-2.406250 0.750000 -6.150000 95 140 202 
-2.343750 0.750000 -6.150000 96 140 202 
-2.281250 0.750000 -6.150000 96 140 202 
-2.031250 0.750000 -6.150000 96 140 201 
-1.968750 0.750000 -6.150000 96 140 201 
-1.906250 0.750000 -6.150000 96 140 201 
-1.843750 0.750000 -6.150000 95 140 202 
-1.781250 0.750000 -6.150000 95 140 201 
-0.236842 0.631579 -5.178947 134 118 105 
-0.082759 0.662069 -5.428966 191 179 167 
-0.027586 0.662069 -5.428966 161 149 141 
0.027586 0.662069 -5.428966 170 157 152 
0.083333 0.666667 -5.466667 206 193 186 
0.139373 0.668990 -5.485714 214 202 189 
0.198582 0.680851 -5.582979 176 163 146 
0.259928 0.693141 -5.683754 189 175 158 
0.321168 0.700730 -5.745986 222 205 190 
0.382353 0.705882 -5.788235 222 206 191 
0.444444 0.711111 -5.831111 227 212 198 
0.505576 0.713755 -5.852788 231 219 203 
0.554745 0.700730 -5.745986 234 225 206 
0.320000 0.365714 -2.998857 234 225 210 
0.348485 0.363636 -2.981818 238 227 215 
1.052632 0.721804 -5.918797 215 202 188 
1.100372 0.713755 -5.852788 209 195 176 
1.155556 0.711111 -5.831111 228 215 196 
1.210332 0.708487 -5.809594 225 213 200 
1.269373 0.708487 -5.809594 216 205 195 
0.512091 0.273115 -2.239545 204 192 183 
0.533333 0.272340 -2.233191 223 211 201 
0.556028 0.272340 -2.233191 238 226 214 
-2.718750 0.687500 -6.150000 93 139 204 
-2.656250 0.687500 -6.150000 95 140 204 
-2.468750 0.687500 -6.150000 97 141 204 
-2.406250 0.687500 -6.150000 96 140 203 
-2.255639 0.661654 -5.918797 96 140 201 
-2.187266 0.659176 -5.896629 96 140 201 
-2.218750 0.687500 -6.150000 97 141 202 
-1.906250 0.687500 -6.150000 96 140 201 
-1.843750 0.687500 -6.150000 97 141 202 
-1.781250 0.687500 -6.150000 97 141 202 
-0.190476 0.465608 -4.165080 136 120 106 
-0.147368 0.463158 -4.143158 159 144 128 
-0.105263 0.463158 -4.143158 211 198 182 
-0.082759 0.606897 -5.428966 207 195 183 
-0.027586 0.606897 -5.428966 176 163 156 
0.027586 0.606897 -5.428966 179 167 161 
0.083333 0.611111 -5.466667 207 197 188 
0.141343 0.621908 -5.563251 209 197 182 
0.201439 0.633094 -5.663310 181 168 151 
0.260870 0.637681 -5.704348 212 197 181 
0.321168 0.642336 -5.745986 218 202 186 
0.380952 0.644689 -5.767033 212 196 181 
0.441176 0.647059 -5.788235 225 211 195 
0.494545 0.640000 -5.725091 231 219 204 
0.511784 0.592593 -5.301010 233 223 208 
0.320000 0.335238 -2.998857 232 224 210 
0.348485 0.333333 -2.981818 238 228 216 
0.647249 0.569579 -5.095146 241 231 219 
0.699029 0.569579 -5.095146 241 231 220 
0.992481 0.661654 -5.918797 239 226 217 
1.044776 0.656716 -5.874627 224 211 200 
1.104478 0.656716 -5.874627 214 199 181 
1.159851 0.654275 -5.852788 226 213 195 
1.223881 0.656716 -5.874627 214 204 191 
-2.718750 0.625000 -6.150000 95 140 205 
-2.656250 0.625000 -6.150000 96 141 206 
-2.593750 0.625000 -6.150000 96 141 204 
-2.531250 0.625000 -6.150000 95 140 203 
-2.468750 0.625000 -6.150000 96 140 203 
-2.315789 0.601504 -5.918797 96 140 203 
-2.205882 0.588235 -5.788235 96 140 202 
-2.147059 0.588235 -5.788235 96 140 201 
-2.088235 0.588235 -5.788235 96 140 201 
-0.232804 0.423280 -4.165080 114 98 87 
-0.188482 0.418848 -4.121466 139 122 109 
-0.145833 0.416667 -4.100000 153 137 121 
-0.103896 0.415584 -4.089351 184 171 154 
-0.062338 0.415584 -4.089351 210 198 185 
-0.027491 0.549828 -5.410309 188 177 167 
0.027586 0.551724 -5.428966 194 185 176 
0.083624 0.557491 -5.485714 210 200 190 
0.141844 0.567376 -5.582979 203 192 176 
0.200000 0.571429 -5.622857 186 173 155 
0.259928 0.577617 -5.683754 215 200 183 
0.318841 0.579710 -5.704348 201 185 169 
0.379562 0.583942 -5.745986 210 194 180 
0.436364 0.581818 -5.725091 221 207 193 
0.482269 0.567376 -5.582979 229 216 203 
0.511784 0.538721 -5.301010 231 220 208 
0.550820 0.524590 -5.161967 233 224 212 
0.595469 0.517799 -5.095146 235 225 215 
0.647249 0.517799 -5.095146 238 228 218 
0.692308 0.512821 -5.046154 241 231 221 
0.750809 0.517799 -5.095146 241 231 221 
0.807818 0.521173 -5.128339 240 229 220 
0.985075 0.597015 -5.874627 237 225 217 
1.044776 0.597015 -5.874627 233 220 211 
1.104478 0.597015 -5.874627 218 203 189 
1.164179 0.597015 -5.874627 225 213 199 
1.281250 0.625000 -6.150000 237 230 218 
-2.718750 0.562500 -6.150000 95 141 204 
-2.656250 0.562500 -6.150000 97 142 205 
-2.593750 0.562500 -6.150000 96 142 204 
-2.531250 0.562500 -6.150000 95 141 203 
-2.468750 0.562500 -6.150000 95 141 203 
-2.264706 0.529412 -5.788235 95 141 203 
-2.197802 0.527473 -5.767033 97 141 202 
-2.123636 0.523636 -5.725091 96 140 201 
-2.035842 0.516129 -5.643011 95 139 200 
-1.978495 0.516129 -5.643011 97 141 202 
-0.230366 0.376963 -4.121466 99 82 73 
-0.187500 0.375000 -4.100000 138 121 108 
-0.145078 0.373057 -4.078756 154 138 122 
-0.103093 0.371134 -4.057732 165 151 135 
-0.061856 0.371134 -4.057732 195 183 169 
-0.020460 0.368286 -4.026598 195 185 173 
0.020202 0.363636 -3.975758 200 191 181 
0.083624 0.501742 -5.485714 216 207 195 
0.141844 0.510638 -5.582979 196 185 168 
0.199288 0.512456 -5.602847 185 172 154 
0.257143 0.514286 -5.622857 199 184 168 
0.315412 0.516129 -5.643011 193 177 162 
0.372760 0.516129 -5.643011 209 193 179 
0.425532 0.510638 -5.582979 217 202 190 
0.472222 0.500000 -5.466667 225 212 201 
0.511784 0.484848 -5.301010 226 216 205 
0.550820 0.472131 -5.161967 232 222 212 
0.591640 0.463023 -5.062379 234 224 214 
0.632911 0.455696 -4.982278 238 228 218 
0.675000 0.450000 -4.920000 240 230 221 
0.725000 0.450000 -4.920000 240 230 221 
0.775000 0.450000 -4.920000 240 230 222 
0.859935 0.469055 -5.128339 238 227 220 
1.093750 0.562500 -6.150000 237 225 218 
1.156250 0.562500 -6.150000 220 205 195 
1.218750 0.562500 -6.150000 222 209 197 
1.281250 0.562500 -6.150000 246 240 227 
-2.718750 0.500000 -6.150000 95 141 203 
-2.656250 0.500000 -6.150000 96 142 204 
-2.593750 0.500000 -6.150000 96 142 204 
-2.531250 0.500000 -6.150000 96 142 204 
-2.468750 0.500000 -6.150000 96 142 204 
-2.264706 0.470588 -5.788235 96 142 204 
-2.181818 0.465455 -5.725091 97 142 203 
-2.093190 0.458781 -5.643011 97 141 202 
-2.000000 0.450704 -5.543662 97 141 202 
-1.916667 0.444444 -5.466667 99 143 204 
-1.861111 0.444444 -5.466667 98 142 203 
-0.229167 0.333333 -4.100000 94 77 70 
-0.187013 0.332468 -4.089351 136 119 107 
-0.144330 0.329897 -4.057732 154 139 123 
-0.103093 0.329897 -4.057732 161 147 131 
-0.061538 0.328205 -4.036923 175 163 148 
-0.020151 0.322418 -3.965743 196 185 173 
0.020050 0.320802 -3.945865 209 200 188 
0.060150 0.320802 -3.945865 221 212 199 
0.140845 0.450704 -5.543662 189 178 161 
0.198582 0.453901 -5.582979 173 160 143 
0.256228 0.455516 -5.602847 174 159 144 
0.312057 0.453901 -5.582979 189 173 159 
0.368794 0.453901 -5.582979 206 189 178 
0.421053 0.449123 -5.524210 216 201 191 
0.464164 0.436860 -5.373379 223 209 200 
0.503311 0.423841 -5.213245 224 213 204 
0.540193 0.411576 -5.062379 227 217 208 
0.582278 0.405063 -4.982278 233 223 214 
0.615385 0.393846 -4.844308 238 228 219 
0.662577 0.392638 -4.829448 239 229 220 
0.703030 0.387879 -4.770909 241 231 223 
0.751515 0.387879 -4.770909 241 232 225 
0.800000 0.387879 -4.770909 241 231 225 
1.093750 0.500000 -6.150000 241 230 223 
1.156250 0.500000 -6.150000 220 205 196 
1.218750 0.500000 -6.150000 199 182 170 
1.281250 0.500000 -6.150000 237 224 209 
-2.718750 0.437500 -6.150000 96 141 202 
-2.656250 0.437500 -6.150000 96 142 203 
-2.593750 0.437500 -6.150000 97 143 204 
-2.531250 0.437500 -6.150000 97 143 205 
-2.468750 0.437500 -6.150000 97 143 205 
-2.264706 0.411765 -5.788235 97 142 204 
-2.197802 0.410256 -5.767033 96 141 202 
-2.108303 0.404332 -5.683754 97 141 202 
-2.007067 0.395760 -5.563251 98 142 203 
-1.943662 0.394366 -5.543662 98 142 203 
-1.893993 0.395760 -5.563251 98 142 203 
-0.229167 0.291667 -4.100000 93 77 72 
-0.187013 0.290909 -4.089351 131 114 105 
-0.144330 0.288660 -4.057732 149 135 120 
-0.102828 0.287918 -4.047301 154 140 125 
-0.061538 0.287179 -4.036923 164 152 138 
-0.020151 0.282116 -3.965743 190 179 166 
0.020000 0.280000 -3.936000 217 207 195 
0.060000 0.280000 -3.936000 223 213 199 
0.140845 0.394366 -5.543662 188 176 161 
0.197880 0.395760 -5.563251 157 144 128 
0.255319 0.397163 -5.582979 151 136 122 
0.308772 0.392982 -5.524210 183 167 154 
0.364912 0.392982 -5.524210 199 183 172 
0.416667 0.388889 -5.466667 212 197 187 
0.461017 0.379661 -5.336949 217 204 195 
0.498361 0.367213 -5.161967 221 210 201 
0.531646 0.354430 -4.982278 225 215 206 
0.566154 0.344615 -4.844308 231 221 212 
0.606061 0.339394 -4.770909 236 226 217 
0.642857 0.333333 -4.685714 240 230 221 
0.690476 0.333333 -4.685714 242 233 225 
0.738095 0.333333 -4.685714 243 234 226 
0.785714 0.333333 -4.685714 242 233 226 
0.848485 0.339394 -4.770909 242 233 225 
1.156250 0.437500 -6.150000 226 213 204 
1.218750 0.437500 -6.150000 168 150 137 
1.281250 0.437500 -6.150000 214 197 179 
-2.718750 0.375000 -6.150000 96 140 201 
-2.656250 0.375000 -6.150000 97 142 203 
-2.593750 0.375000 -6.150000 97 143 204 
-2.531250 0.375000 -6.150000 97 143 205 
-2.468750 0.375000 -6.150000 97 143 205 
-2.289963 0.356877 -5.852788 96 143 205 
-2.205882 0.352941 -5.788235 95 140 201 
-2.131387 0.350365 -5.745986 97 141 202 
-2.050541 0.346570 -5.683754 98 142 203 
-1.992780 0.346570 -5.683754 97 141 202 
-0.406250 0.375000 -6.150000 150 139 137 
-0.229765 0.250653 -4.110705 100 85 82 
-0.187500 0.250000 -4.100000 119 104 96 
-0.144703 0.248062 -4.068217 128 114 102 
-0.103093 0.247423 -4.057732 137 124 110 
-0.061538 0.246154 -4.036923 154 142 129 
-0.020305 0.243655 -3.995939 182 169 158 
0.020202 0.242424 -3.975758 224 212 201 
0.083916 0.335664 -5.504895 223 211 198 
0.141844 0.340426 -5.582979 182 169 155 
0.197880 0.339223 -5.563251 136 122 108 
0.254417 0.339223 -5.563251 140 124 112 
0.308772 0.336842 -5.524210 175 158 147 
0.363636 0.335664 -5.504895 194 178 167 
0.415225 0.332180 -5.447751 205 191 181 
0.457912 0.323232 -5.301010 212 199 190 
0.493506 0.311688 -5.111689 218 207 198 
0.528302 0.301887 -4.950943 226 216 206 
0.557576 0.290909 -4.770909 230 220 210 
0.595238 0.285714 -4.685714 234 225 214 
0.631579 0.280702 -4.603509 238 229 219 
0.674419 0.279070 -4.576744 239 230 221 
0.718841 0.278261 -4.563478 241 232 224 
0.765217 0.278261 -4.563478 242 234 226 
0.833333 0.285714 -4.685714 242 234 226 
1.156250 0.375000 -6.150000 238 228 219 
1.218750 0.375000 -6.150000 173 157 144 
1.281250 0.375000 -6.150000 185 166 148 
-2.718750 0.312500 -6.150000 96 141 201 
-2.656250 0.312500 -6.150000 97 142 203 
-2.593750 0.312500 -6.150000 97 143 204 
-2.531250 0.312500 -6.150000 96 142 204 
-2.468750 0.312500 -6.150000 95 142 204 
-2.298507 0.298507 -5.874627 95 142 204 
-2.222222 0.296296 -5.831111 96 142 203 
-2.147059 0.294118 -5.788235 97 142 202 
-2.095941 0.295203 -5.809594 98 142 203 
-0.843750 0.312500 -6.150000 233 226 215 
-0.531250 0.312500 -6.150000 241 232 220 
-0.468750 0.312500 -6.150000 244 234 227 
-0.406250 0.312500 -6.150000 185 174 171 
-0.187500 0.208333 -4.100000 140 126 118 
-0.145833 0.208333 -4.100000 131 118 107 
-0.103359 0.206718 -4.068217 118 105 93 
-0.062016 0.206718 -4.068217 140 127 116 
-0.020672 0.206718 -4.068217 175 161 151 
0.143369 0.286738 -5.643011 170 156 144 
0.198582 0.283688 -5.582979 115 101 90 
0.255319 0.283688 -5.582979 130 114 104 
0.309859 0.281690 -5.543662 164 148 138 
0.363636 0.279720 -5.504895 188 171 162 
0.415225 0.276817 -5.447751 200 186 177 
0.456376 0.268456 -5.283222 208 195 186 
0.493506 0.259740 -5.111689 217 205 195 
0.525000 0.250000 -4.920000 224 213 203 
0.554217 0.240964 -4.742169 229 219 209 
0.584795 0.233918 -4.603509 231 222 212 
0.624277 0.231214 -4.550289 234 225 215 
0.649860 0.224090 -4.410084 236 227 218 
0.692737 0.223464 -4.397766 239 230 221 
0.735376 0.222841 -4.385515 241 233 223 
0.811594 0.231884 -4.563478 240 232 223 
1.156250 0.312500 -6.150000 238 229 221 
-2.718750 0.250000 -6.150000 97 142 202 
-2.656250 0.250000 -6.150000 97 143 203 
-2.593750 0.250000 -6.150000 96 142 203 
-2.531250 0.250000 -6.150000 95 142 203 
-2.468750 0.250000 -6.150000 95 143 203 
-2.406250 0.250000 -6.150000 95 144 204 
-2.247191 0.239700 -5.896629 96 142 202 
-2.281250 0.250000 -6.150000 96 142 202 
-0.906250 0.250000 -6.150000 241 237 228 
-0.843750 0.250000 -6.150000 238 232 220 
-0.781250 0.250000 -6.150000 235 224 212 
-0.593750 0.250000 -6.150000 240 232 222 
-0.531250 0.250000 -6.150000 239 233 222 
-0.468750 0.250000 -6.150000 240 232 222 
-0.145833 0.166667 -4.100000 163 151 142 
-0.104167 0.166667 -4.100000 124 114 104 
-0.062500 0.166667 -4.100000 133 121 111 
0.147059 0.235294 -5.788235 154 140 129 
0.201439 0.230216 -5.663310 96 82 72 
0.258993 0.230216 -5.663310 120 104 94 
0.314286 0.228571 -5.622857 152 136 127 
0.366197 0.225352 -5.543662 175 162 154 
0.416667 0.222222 -5.466667 192 180 173 
0.456376 0.214765 -5.283222 204 191 183 
0.491909 0.207120 -5.095146 215 202 191 
0.521739 0.198758 -4.889441 222 210 198 
0.550898 0.191617 -4.713772 228 216 205 
0.578035 0.184971 -4.550289 229 218 207 
0.603352 0.178771 -4.397766 231 220 210 
0.642659 0.177285 -4.361219 233 222 213 
0.677596 0.174863 -4.301640 237 226 217 
0.719346 0.174387 -4.289918 240 230 219 
0.779944 0.178273 -4.385515 239 229 218 
-2.781250 0.187500 -6.150000 98 142 203 
-2.718750 0.187500 -6.150000 97 142 203 
-2.656250 0.187500 -6.150000 97 142 202 
-2.593750 0.187500 -6.150000 97 143 203 
-2.531250 0.187500 -6.150000 97 143 203 
-2.468750 0.187500 -6.150000 97 144 204 
-2.406250 0.187500 -6.150000 97 144 204 
-2.343750 0.187500 -6.150000 97 143 203 
-0.906250 0.187500 -6.150000 239 233 222 
-0.843750 0.187500 -6.150000 242 235 221 
-0.781250 0.187500 -6.150000 230 219 204 
-0.718750 0.187500 -6.150000 232 220 209 
-0.656250 0.187500 -6.150000 242 233 224 
-0.593750 0.187500 -6.150000 243 237 228 
-0.531250 0.187500 -6.150000 241 236 226 
-0.468750 0.187500 -6.150000 242 235 224 
0.090226 0.180451 -5.918797 187 173 161 
0.147601 0.177122 -5.809594 127 114 104 
0.205882 0.176471 -5.788235 81 67 58 
0.262774 0.175182 -5.745986 117 101 93 
0.316547 0.172662 -5.663310 141 126 118 
0.372760 0.172043 -5.643011 163 151 144 
0.416667 0.166667 -5.466667 184 173 167 
0.456376 0.161074 -5.283222 199 186 178 
0.490323 0.154839 -5.078710 212 198 187 
0.520124 0.148607 -4.874303 220 207 194 
0.547619 0.142857 -4.685714 223 211 198 
0.574713 0.137931 -4.524138 224 212 200 
0.598338 0.132964 -4.361219 228 216 206 
0.633880 0.131148 -4.301640 232 219 210 
0.670270 0.129730 -4.255135 236 223 214 
0.711590 0.129380 -4.243666 240 228 217 
0.754717 0.129380 -4.243666 241 230 217 
0.806540 0.130790 -4.289918 240 229 217 
0.589888 0.033708 -1.105618 95 141 202 
-2.718750 0.125000 -6.150000 98 142 203 
-2.656250 0.125000 -6.150000 98 143 203 
-2.593750 0.125000 -6.150000 99 143 204 
-2.531250 0.125000 -6.150000 99 144 204 
-2.468750 0.125000 -6.150000 98 144 204 
-2.406250 0.125000 -6.150000 98 144 204 
-2.343750 0.125000 -6.150000 97 143 203 
-2.281250 0.125000 -6.150000 98 144 204 
-0.843750 0.125000 -6.150000 246 236 221 
-0.781250 0.125000 -6.150000 230 220 206 
-0.718750 0.125000 -6.150000 220 208 198 
-0.656250 0.125000 -6.150000 240 230 221 
-0.593750 0.125000 -6.150000 245 238 228 
-0.531250 0.125000 -6.150000 242 237 226 
-0.468750 0.125000 -6.150000 243 237 225 
0.031250 0.125000 -6.150000 187 173 159 
0.090226 0.120301 -5.918797 103 91 79 
0.148148 0.118519 -5.831111 79 68 60 
0.205882 0.117647 -5.788235 69 57 50 
0.264706 0.117647 -5.788235 109 94 86 
0.320000 0.116364 -5.725091 132 118 110 
0.372760 0.114695 -5.643011 149 136 130 
0.416667 0.111111 -5.466667 169 159 151 
0.451827 0.106312 -5.230565 190 178 169 
0.485623 0.102236 -5.030032 205 191 180 
0.520124 0.099071 -4.874303 214 201 187 
0.547619 0.095238 -4.685714 217 205 191 
0.573066 0.091691 -4.511175 219 207 194 
0.595041 0.088154 -4.337190 225 212 202 
0.627027 0.086486 -4.255135 231 218 209 
0.668464 0.086253 -4.243666 235 222 213 
0.705882 0.085561 -4.209626 240 227 217 
0.746667 0.085333 -4.198400 242 230 219 
0.797844 0.086253 -4.243666 240 229 218 
0.581100 0.022567 -1.110296 97 143 203 
0.589888 0.022472 -1.105618 96 142 202 
-2.718750 0.062500 -6.150000 100 141 203 
-2.656250 0.062500 -6.150000 100 142 203 
-2.593750 0.062500 -6.150000 100 144 205 
-2.531250 0.062500 -6.150000 100 144 205 
-2.468750 0.062500 -6.150000 99 144 205 
-2.406250 0.062500 -6.150000 99 143 204 
-2.343750 0.062500 -6.150000 99 144 204 
-2.281250 0.062500 -6.150000 99 145 205 
-0.843750 0.062500 -6.150000 244 232 217 
-0.781250 0.062500 -6.150000 237 228 215 
-0.718750 0.062500 -6.150000 212 200 190 
-0.656250 0.062500 -6.150000 221 210 201 
-0.593750 0.062500 -6.150000 243 234 225 
-0.531250 0.062500 -6.150000 243 238 227 
-0.468750 0.062500 -6.150000 238 233 221 
-0.406250 0.062500 -6.150000 234 225 213 
-0.031250 0.062500 -6.150000 196 181 167 
0.031250 0.062500 -6.150000 114 101 87 
0.093750 0.062500 -6.150000 74 64 53 
0.150376 0.060150 -5.918797 58 49 43 
0.207407 0.059259 -5.831111 58 47 42 
0.264706 0.058824 -5.788235 98 84 77 
0.320000 0.058182 -5.725091 124 110 103 
0.372760 0.057348 -5.643011 134 122 116 
0.421053 0.056140 -5.524210 153 144 137 
0.451827 0.053156 -5.230565 178 168 158 
0.482540 0.050794 -4.998096 195 182 171 
0.516923 0.049231 -4.844308 206 193 179 
0.545994 0.047478 -4.671810 211 199 185 
0.569801 0.045584 -4.485470 216 204 191 
0.595041 0.044077 -4.337190 223 211 199 
0.625337 0.043127 -4.243666 231 218 209 
0.663102 0.042781 -4.209626 235 222 213 
0.698413 0.042328 -4.165080 239 226 217 
0.738786 0.042216 -4.154090 241 229 219 
0.781003 0.042216 -4.154090 240 230 218 
0.569817 0.011283 -1.110296 98 143 203 
0.579466 0.011252 -1.107173 97 143 203 
0.589888 0.011236 -1.105618 97 143 203 
0.601124 0.011236 -1.105618 96 142 203 
-2.656250 0.000000 -6.150000 101 142 204 
-2.593750 0.000000 -6.150000 100 143 205 
-2.531250 0.000000 -6.150000 100 144 205 
-2.468750 0.000000 -6.150000 99 143 204 
-2.406250 0.000000 -6.150000 99 143 204 
-2.343750 0.000000 -6.150000 99 145 205 
-2.281250 0.000000 -6.150000 99 145 205 
-0.906250 0.000000 -6.150000 230 218 207 
-0.843750 0.000000 -6.150000 243 232 218 
-0.781250 0.000000 -6.150000 240 231 219 
-0.718750 0.000000 -6.150000 215 203 193 
-0.656250 0.000000 -6.150000 212 200 191 
-0.593750 0.000000 -6.150000 238 230 220 
-0.531250 0.000000 -6.150000 243 237 227 
-0.468750 0.000000 -6.150000 243 238 227 
-0.406250 0.000000 -6.150000 237 228 217 
-0.343750 0.000000 -6.150000 226 214 200 
-0.156250 0.000000 -6.150000 222 210 199 
-0.093750 0.000000 -6.150000 207 192 179 
-0.031250 0.000000 -6.150000 135 120 106 
0.031250 0.000000 -6.150000 95 83 70 
0.093750 0.000000 -6.150000 79 71 61 
0.156250 0.000000 -6.150000 46 40 34 
0.210526 0.000000 -5.918797 47 39 34 
0.266667 0.000000 -5.831111 86 74 67 
0.320000 0.000000 -5.725091 118 105 98 
0.364912 0.000000 -5.524210 124 112 106 
0.415225 0.000000 -5.447751 136 126 120 
0.461017 0.000000 -5.336949 163 154 145 
0.477987 0.000000 -4.950943 184 172 162 
0.513761 0.000000 -4.814679 194 181 169 
0.541176 0.000000 -4.630589 205 192 179 
0.568182 0.000000 -4.472727 213 200 187 
0.593407 0.000000 -4.325275 220 207 195 
0.623656 0.000000 -4.232258 228 215 204 
0.656085 0.000000 -4.165080 233 219 210 
0.692913 0.000000 -4.132284 238 224 215 
0.732984 0.000000 -4.121466 242 229 219 
0.772846 0.000000 -4.110705 240 231 217 
0.821053 0.000000 -4.143158 239 229 218 
0.558533 0.000000 -1.110296 97 141 202 
0.569014 0.000000 -1.108732 96 142 202 
0.579466 0.000000 -1.107173 97 143 203 
0.589888 0.000000 -1.105618 97 143 203 
0.601124 0.000000 -1.105618 97 143 204 
0.617127 0.000000 -1.114225 96 142 203 
0.635193 0.000000 -1.126180 95 141 203 
-2.656250 -0.062500 -6.150000 100 144 205 
-2.593750 -0.062500 -6.150000 100 144 205 
-2.531250 -0.062500 -6.150000 100 144 205 
-2.468750 -0.062500 -6.150000 99 144 205 
-2.406250 -0.062500 -6.150000 99 144 205 
-2.343750 -0.062500 -6.150000 99 145 205 
-2.281250 -0.062500 -6.150000 99 145 205 
-2.218750 -0.062500 -6.150000 99 145 205 
-0.906250 -0.062500 -6.150000 185 174 167 
-0.843750 -0.062500 -6.150000 238 229 218 
-0.781250 -0.062500 -6.150000 242 233 222 
-0.718750 -0.062500 -6.150000 231 219 210 
-0.656250 -0.062500 -6.150000 213 201 193 
-0.593750 -0.062500 -6.150000 235 226 217 
-0.531250 -0.062500 -6.150000 244 238 228 
-0.468750 -0.062500 -6.150000 244 237 227 
-0.406250 -0.062500 -6.150000 243 235 225 
-0.343750 -0.062500 -6.150000 233 221 209 
-0.281250 -0.062500 -6.150000 226 215 202 
-0.218750 -0.062500 -6.150000 233 221 210 
-0.156250 -0.062500 -6.150000 218 204 193 
-0.093750 -0.062500 -6.150000 159 144 131 
-0.031250 -0.062500 -6.150000 102 88 74 
0.031250 -0.062500 -6.150000 116 106 94 
0.093750 -0.062500 -6.150000 71 65 57 
0.156250 -0.062500 -6.150000 41 38 33 
0.364912 -0.056140 -5.524210 119 107 101 
0.415225 -0.055363 -5.447751 122 113 107 
0.448845 -0.052805 -5.196040 144 135 128 
0.473520 -0.049844 -4.904673 169 158 149 
0.506024 -0.048193 -4.742169 182 168 158 
0.536443 -0.046647 -4.590087 199 184 174 
0.564972 -0.045198 -4.447458 206 192 180 
0.591781 -0.043836 -4.313425 218 204 191 
0.620321 -0.042781 -4.209626 224 210 198 
0.650919 -0.041995 -4.132284 229 215 204 
0.687500 -0.041667 -4.100000 235 221 210 
0.727273 -0.041558 -4.089351 239 226 215 
0.768831 -0.041558 -4.089351 238 230 214 
0.812500 -0.041667 -4.100000 240 231 219 
0.854167 -0.041667 -4.100000 239 226 218 
0.904523 -0.040201 -3.955779 200 186 169 
0.533708 -0.011236 -1.105618 98 142 203 
0.546094 -0.011260 -1.107952 98 142 203 
0.557746 -0.011268 -1.108732 97 141 202 
0.569014 -0.011268 -1.108732 96 142 202 
0.579058 -0.011244 -1.106395 97 143 203 
0.589888 -0.011236 -1.105618 97 143 203 
0.601124 -0.011236 -1.105618 98 144 204 
0.613221 -0.011252 -1.107173 98 144 204 
0.628450 -0.011323 -1.114225 97 143 203 
0.642502 -0.011372 -1.118977 97 143 203 
-2.656250 -0.125000 -6.150000 99 144 204 
-2.593750 -0.125000 -6.150000 99 145 205 
-2.531250 -0.125000 -6.150000 100 145 205 
-2.468750 -0.125000 -6.150000 99 145 205 
-2.406250 -0.125000 -6.150000 99 145 205 
-2.343750 -0.125000 -6.150000 99 145 205 
-2.281250 -0.125000 -6.150000 99 145 205 
-2.218750 -0.125000 -6.150000 99 145 205 
-1.680000 -0.106667 -5.248000 99 145 205 
-0.968750 -0.125000 -6.150000 70 66 65 
-0.906250 -0.125000 -6.150000 165 156 151 
-0.843750 -0.125000 -6.150000 239 231 222 
-0.781250 -0.125000 -6.150000 244 236 225 
-0.718750 -0.125000 -6.150000 245 233 224 
-0.656250 -0.125000 -6.150000 220 208 199 
-0.593750 -0.125000 -6.150000 231 221 212 
-0.531250 -0.125000 -6.150000 247 240 231 
-0.468750 -0.125000 -6.150000 246 239 229 
-0.406250 -0.125000 -6.150000 244 236 227 
-0.343750 -0.125000 -6.150000 237 227 216 
-0.281250 -0.125000 -6.150000 234 224 213 
-0.218750 -0.125000 -6.150000 227 215 206 
-0.156250 -0.125000 -6.150000 190 175 165 
-0.093750 -0.125000 -6.150000 116 100 88 
-0.031250 -0.125000 -6.150000 124 109 98 
0.031250 -0.125000 -6.150000 105 96 87 
0.359862 -0.110727 -5.447751 118 106 101 
0.406780 -0.108475 -5.336949 118 108 105 
0.431746 -0.101587 -4.998096 128 119 114 
0.466258 -0.098160 -4.829448 150 140 133 
0.500000 -0.095238 -4.685714 173 160 153 
0.530259 -0.092219 -4.537176 191 177 169 
0.560224 -0.089636 -4.410084 199 185 175 
0.588556 -0.087193 -4.289918 216 202 189 
0.617021 -0.085106 -4.187234 222 208 195 
0.645833 -0.083333 -4.100000 228 214 201 
0.685714 -0.083117 -4.089351 234 220 207 
0.721649 -0.082474 -4.057732 238 225 213 
0.760925 -0.082262 -4.047301 238 230 213 
0.802057 -0.082262 -4.047301 238 229 217 
0.841026 -0.082051 -4.036923 240 227 219 
0.864322 -0.080402 -3.955779 234 221 210 
0.897756 -0.079801 -3.926185 222 210 194 
0.937656 -0.079801 -3.926185 234 220 208 
0.522472 -0.022472 -1.105618 99 143 204 
0.533708 -0.022472 -1.105618 98 142 203 
0.546094 -0.022519 -1.107952 98 142 203 
0.557746 -0.022535 -1.108732 97 141 202 
0.569014 -0.022535 -1.108732 97 142 203 
0.579058 -0.022488 -1.106395 97 143 203 
0.589888 -0.022472 -1.105618 97 143 203 
0.600702 -0.022456 -1.104842 97 143 203 
0.612360 -0.022472 -1.105618 99 145 205 
0.624912 -0.022519 -1.107952 98 144 204 
0.639774 -0.022647 -1.114225 97 143 203 
-2.656250 -0.187500 -6.150000 98 144 204 
-2.593750 -0.187500 -6.150000 99 145 205 
-2.531250 -0.187500 -6.150000 99 146 206 
-2.468750 -0.187500 -6.150000 99 146 206 
-2.406250 -0.187500 -6.150000 99 146 206 
-2.343750 -0.187500 -6.150000 99 145 205 
-2.281250 -0.187500 -6.150000 99 145 205 
-2.218750 -0.187500 -6.150000 99 145 205 
-1.733333 -0.160000 -5.248000 101 146 206 
-1.674419 -0.159468 -5.230565 100 146 206 
-1.632107 -0.160535 -5.265552 99 145 205 
-1.031250 -0.187500 -6.150000 34 34 34 
-0.968750 -0.187500 -6.150000 60 54 50 
-0.906250 -0.187500 -6.150000 153 144 139 
-0.843750 -0.187500 -6.150000 236 229 220 
-0.781250 -0.187500 -6.150000 240 232 221 
-0.718750 -0.187500 -6.150000 248 237 228 
-0.656250 -0.187500 -6.150000 224 213 204 
-0.593750 -0.187500 -6.150000 221 211 202 
-0.531250 -0.187500 -6.150000 242 234 223 
-0.468750 -0.187500 -6.150000 245 238 229 
-0.406250 -0.187500 -6.150000 242 234 226 
-0.343750 -0.187500 -6.150000 241 232 222 
-0.281250 -0.187500 -6.150000 238 228 217 
-0.218750 -0.187500 -6.150000 213 201 191 
-0.156250 -0.187500 -6.150000 133 119 108 
-0.093750 -0.187500 -6.150000 111 94 82 
0.343234 -0.158416 -5.196040 108 97 91 
0.380952 -0.152381 -4.998096 116 106 102 
0.425000 -0.150000 -4.920000 119 109 106 
0.457831 -0.144578 -4.742169 131 120 116 
0.492669 -0.140762 -4.617009 156 143 138 
0.524217 -0.136752 -4.485470 183 169 162 
0.554017 -0.132964 -4.361219 193 179 170 
0.583784 -0.129730 -4.255135 208 194 182 
0.613757 -0.126984 -4.165080 221 207 194 
0.644156 -0.124675 -4.089351 227 214 200 
0.680412 -0.123711 -4.057732 233 220 206 
0.716113 -0.122762 -4.026598 238 225 211 
0.751269 -0.121827 -3.995939 238 229 212 
0.787879 -0.121212 -3.975758 240 231 218 
0.822055 -0.120301 -3.945865 240 228 219 
0.857855 -0.119701 -3.926185 235 223 212 
0.891089 -0.118812 -3.897030 226 215 201 
0.926108 -0.118227 -3.877833 234 221 210 
0.956098 -0.117073 -3.840000 197 180 167 
0.990291 -0.116505 -3.821359 184 164 148 
1.029126 -0.116505 -3.821359 199 180 171 
1.067961 -0.116505 -3.821359 144 128 116 
0.569415 -0.033827 -1.109514 97 143 203 
0.579466 -0.033755 -1.107173 98 144 204 
0.589888 -0.033708 -1.105618 97 143 203 
0.600702 -0.033684 -1.104842 96 142 202 
0.612360 -0.033708 -1.105618 99 145 205 
0.623595 -0.033708 -1.105618 98 144 204 
0.636172 -0.033779 -1.107952 98 144 204 
-2.781250 -0.250000 -6.150000 99 145 205 
-2.718750 -0.250000 -6.150000 99 144 205 
-2.656250 -0.250000 -6.150000 99 144 205 
-2.593750 -0.250000 -6.150000 99 144 205 
-2.531250 -0.250000 -6.150000 99 144 205 
-2.468750 -0.250000 -6.150000 99 145 205 
-2.406250 -0.250000 -6.150000 99 146 205 
-2.343750 -0.250000 -6.150000 98 145 205 
-2.281250 -0.250000 -6.150000 99 145 206 
-2.218750 -0.250000 -6.150000 100 146 207 
-1.733333 -0.213333 -5.248000 100 145 205 
-1.680000 -0.213333 -5.248000 101 145 206 
-1.626667 -0.213333 -5.248000 100 144 205 
-0.968750 -0.250000 -6.150000 67 63 60 
-0.906250 -0.250000 -6.150000 122 110 106 
-0.843750 -0.250000 -6.150000 222 215 205 
-0.781250 -0.250000 -6.150000 243 238 226 
-0.718750 -0.250000 -6.150000 247 238 229 
-0.656250 -0.250000 -6.150000 229 218 209 
-0.593750 -0.250000 -6.150000 211 198 185 
-0.505576 -0.237918 -5.852788 232 222 207 
-0.446097 -0.237918 -5.852788 245 238 224 
-0.388060 -0.238806 -5.874627 242 235 224 
-0.343750 -0.250000 -6.150000 237 230 218 
-0.281250 -0.250000 -6.150000 230 222 208 
-0.218750 -0.250000 -6.150000 163 152 139 
-0.156250 -0.250000 -6.150000 116 102 89 
-0.093750 -0.250000 -6.150000 115 101 87 
-0.031250 -0.250000 -6.150000 80 69 57 
0.357143 -0.190476 -4.685714 110 101 93 
0.409639 -0.192771 -4.742169 115 105 100 
0.451039 -0.189911 -4.671810 118 106 104 
0.482759 -0.183908 -4.524138 132 121 116 
0.515406 -0.179272 -4.410084 164 153 145 
0.547945 -0.175342 -4.313425 185 173 163 
0.579088 -0.171582 -4.220912 200 187 174 
0.608924 -0.167979 -4.132284 215 202 187 
0.639175 -0.164948 -4.057732 224 211 197 
0.675192 -0.163683 -4.026598 232 218 205 
0.703518 -0.160804 -3.955779 236 223 211 
0.740000 -0.160000 -3.936000 239 229 215 
0.778055 -0.159601 -3.926185 240 231 218 
0.813896 -0.158809 -3.906700 241 229 219 
0.851485 -0.158416 -3.897030 239 226 214 
0.888889 -0.158025 -3.887408 233 219 205 
0.928395 -0.158025 -3.887408 217 202 187 
0.965517 -0.157635 -3.877833 182 164 148 
0.995122 -0.156098 -3.840000 199 180 162 
1.029126 -0.155340 -3.821359 155 140 127 
1.067961 -0.155340 -3.821359 131 115 100 
0.590717 -0.045007 -1.107173 97 143 203 
0.600702 -0.044912 -1.104842 96 142 202 
0.611930 -0.044912 -1.104842 98 144 204 
0.623595 -0.044944 -1.105618 98 144 204 
0.634831 -0.044944 -1.105618 98 144 204 
0.602740 -0.039851 -0.980324 185 205 224 
-2.781250 -0.312500 -6.150000 100 145 205 
-2.718750 -0.312500 -6.150000 100 144 205 
-2.656250 -0.312500 -6.150000 101 144 205 
-2.593750 -0.312500 -6.150000 102 145 206 
-2.531250 -0.312500 -6.150000 101 146 206 
-2.468750 -0.312500 -6.150000 100 145 206 
-2.406250 -0.312500 -6.150000 98 145 205 
-2.343750 -0.312500 -6.150000 99 146 207 
-2.281250 -0.312500 -6.150000 99 145 207 
-2.218750 -0.312500 -6.150000 99 145 207 
-1.739130 -0.267559 -5.265552 100 144 205 
-1.680000 -0.266667 -5.248000 101 145 206 
-1.632107 -0.267559 -5.265552 101 145 206 
-0.968750 -0.312500 -6.150000 61 60 60 
-0.906250 -0.312500 -6.150000 92 80 77 
-0.843750 -0.312500 -6.150000 191 184 173 
-0.781250 -0.312500 -6.150000 241 237 225 
-0.694340 -0.301887 -5.941132 242 233 226 
-0.629214 -0.299625 -5.896629 236 226 217 
-0.560886 -0.295203 -5.809594 192 179 166 
-0.498168 -0.293040 -5.767033 200 189 171 
-0.437956 -0.291971 -5.745986 232 224 207 
-0.375451 -0.288809 -5.683754 239 232 219 
-0.328358 -0.298507 -5.874627 228 221 206 
-0.281250 -0.312500 -6.150000 179 171 156 
-0.218750 -0.312500 -6.150000 119 108 95 
-0.156250 -0.312500 -6.150000 120 109 96 
