ply
format ascii 1.0
element vertex 695
property double x
property double y
property double z
property uchar red
property uchar green
property uchar blue
end_header
-0.2782036249596189 -0.1495838741224261 1.2441312243414007 51 51 43
-0.1658935029932277 -0.1534970609541235 1.2398762830390757 201 202 207
-0.4560178628911949 0.2078491581253648 0.9889104771367904 45 26 20
-0.3070209352502357 0.2254576385684318 1.0115169517842195 134 134 134
-0.6493515098135457 -0.0368371843935152 1.1329932838250114 98 115 107
-0.4053911301535948 0.1805096119973944 1.0164206233234463 87 73 73
0.3363191128323165 -0.0953554757677254 1.2409715898333642 174 181 174
0.0248825372290679 0.0835804060645148 1.1454158055330725 111 33 31
0.0159257233999005 0.1154424358453457 1.1144444982558732 152 135 128
-0.4577618688930191 0.2130458162838108 0.9826891353015118 121 101 102
-0.2712436510695003 -0.1511807920749396 1.2532872868003364 69 79 80
-0.4442629436420665 -0.1165425928195381 1.2871051727691138 80 87 103
-0.6651741612327338 -0.1073161097769417 1.2029937588346291 63 61 64
-0.5764982814341004 -0.1509622791346854 1.2616141441328397 52 32 34
-0.1498403497506766 0.1289956699185229 1.0905545751588281 124 102 44
-0.6523627424333031 -0.4316674243119054 1.4920824833767639 108 97 95
-0.3207423742078344 0.1097715155542584 1.0889999703728837 137 104 95
-0.4322380425131027 0.1771173163864158 1.0081935656950400 122 72 83
-0.0373001443569059 0.1203178175347137 1.1047085492667972 128 131 122
-0.1666013959823882 -0.1421204599503014 1.2482961214635648 66 70 73
-0.2772029924294389 -0.1520151153829785 1.2468057546935929 60 59 67
-0.1670660801102203 -0.1397078079874816 1.2357981913447633 60 61 63
-0.6380215209494403 -0.0201425773576047 1.1337174586330185 42 63 48
-0.0352149651095194 -0.2932417785737613 1.4664926159913994 129 101 77
0.1983821807110316 0.2255753104663634 1.0443093076470977 124 117 111
-0.6745301339003028 -0.1605326592468985 1.2487695217957120 71 57 70
-0.0683318176380895 0.1092636742690054 1.1111763993106656 59 69 60
-0.5888170044342352 0.1275055104374284 1.0208736551161763 71 86 81
-0.2345527650537750 0.1611072563452060 1.0587993582987014 79 57 60
-0.6540157331452138 -0.0306566015985810 1.1394785687141882 107 119 115
-0.6812751703061201 -0.0351744939938076 1.1503280847888382 109 105 102
-0.4282116640515949 0.0499591359125431 1.1200848893185456 100 100 100
-0.6743609952609725 -0.1060087073558071 1.1996804797403671 101 113 111
-0.5539329924376016 0.0825963304631317 1.0626167642870412 91 106 99
-0.3251894153188787 0.0979426892380595 1.1002725403040565 59 40 7
-0.0572849755289932 0.2100358816816093 1.0296308952202522 50 55 49
-0.7410433641010450 -0.1586066901016339 1.2344965451036725 132 121 127
0.2970099954717081 -0.1275762388289871 1.3304525034079666 76 76 66
-0.6431633513509695 -0.1034942452969116 1.1998581822729013 85 96 80
-0.4350101953557060 0.1624173422753221 1.0203090058200932 109 97 97
-0.5032823280228073 0.1676731725289057 1.0040365805960099 114 123 118
-0.6354106314511893 -0.0240822597196063 1.1352249020204401 111 123 121
-0.6405774486670098 -0.0072022939530135 1.1274164252320160 57 59 56
-0.2722724962468305 0.1956706927936826 1.0214790116490295 83 43 52
-0.4891785312983425 0.0607156281846563 1.0906131049039074 101 112 106
-0.3034627522844726 -0.1532295731531428 1.2345850215033607 40 38 41
-0.6798795819408864 -0.1698643051722198 1.2601552067354096 59 47 51
0.3146147792185655 0.0137505314087182 1.1886366704866549 133 111 98
0.4977402429336487 0.1821740701741568 1.1020145624004907 115 113 101
0.0261799837601971 0.2003347573571870 1.0475310880819315 83 99 96
-0.3519116586403527 0.1890112928226522 1.0212111969819173 130 113 119
0.3119180397412128 0.2307699261993876 1.0496042022148941 57 52 56
-0.0415990167350490 0.1135479766979460 1.1173671759702497 65 64 46
-0.1458392052735357 0.1645329282884011 1.0646949416496199 94 47 57
-0.4888075386601002 0.1713167336081080 1.0024929023562470 100 88 88
-0.6989865820009832 -0.3710683126242819 1.4319596659596692 115 87 109
-0.1227240987746712 0.0827515593335717 1.1298952320275726 129 111 107
-0.2049520254623390 -0.2974755961135696 1.4555710958083561 101 29 33
-0.3112770322404844 0.2075390021868924 1.0131277337806230 112 40 60
-0.1077356717899018 -0.1281573382509923 1.6241941597749463 162 147 118
0.8218617058687269 -0.1149684836904546 1.3786840918656815 104 54 65
-0.4487195479998787 0.1470759547920253 1.0347036218242698 119 92 97
-0.2056382710321519 0.0151965376952344 1.1621232913764523 26 27 31
-0.4893288783295563 -0.2853693426999500 1.3933758902533631 96 71 77
-0.3392622845626663 -0.1576015347865800 1.2382764415709939 111 114 119
-0.0585281449071566 -0.2882429004306957 1.4556997577760260 137 89 85
-0.0811453546109049 0.0754135951993857 1.1417615867185060 58 50 48
-0.2882960470441791 0.1468812571870053 1.0596513197492252 57 30 35
-0.1565632211696208 0.1865101090715134 1.0386862558956784 68 38 48
-0.1436793744968037 -0.3646235723518855 1.5157511390463183 110 91 87
0.2510687072584506 -0.2396800986041834 1.3781814022604717 61 58 49
-0.2506628440296939 0.1899801910693565 1.0280448813664307 92 54 69
-0.5614190275657726 -0.2136127889674186 1.3070423635588428 138 85 101
-0.3017632697146973 0.0550370525060633 1.1354001308242523 36 22 21
0.5815512530650114 0.1873556423682261 1.1036135936783826 129 129 121
-0.4073105790126558 0.1719766145045905 1.0233389325479501 135 95 106
0.3242480391240222 0.0995740758192573 1.1531952329916382 121 115 103
0.6665366066188726 -0.5481298915590103 1.7662408720687977 82 55 70
-0.7972806115283569 -0.3860174400002161 1.4136036902605631 141 89 125
-0.2378427029023880 0.1827124286538740 1.0292860728372513 157 129 143
0.6496289993561140 0.0434485728655591 1.2259630606003933 145 136 129
-0.5775507683711980 0.0381060779914767 1.0939125968480576 140 147 140
0.3268265933066342 -0.0454191220890788 1.5026871246059732 176 175 170
0.2665729316820810 -0.0339601839082047 1.2010838308673699 171 161 159
-0.5315689827457867 0.0096275508730273 1.1271363967763781 49 64 61
0.4777406068838114 -0.6119912332731030 1.8103317417084814 111 83 95
0.7739524180502042 -0.3786371211057991 1.6179273364809754 159 107 85
-0.1993231456058703 0.1048062857209354 1.1022723199090443 145 113 74
0.3431594284592319 -0.1418549451144392 1.3176431578429777 154 157 138
-0.5444928248005508 0.1352904130374789 1.0236638537251539 66 74 87
-0.5710863685397277 0.1739715359402762 0.9881005391103248 102 125 109
0.9626887283128404 -0.6244735079330416 1.8611380721601249 140 97 125
0.5709013840572801 -0.4873522251144297 1.6949427120242877 148 158 160
-0.3543855016119727 -0.1304287323276491 1.2159057264586890 121 122 117
-0.3519889081805379 -0.1123493020268272 1.1970838598105613 125 122 115
-0.4064525508300617 -0.0600540822963276 1.1609655223353064 70 65 62
0.3265454313891739 0.0095171353933340 1.1967447843065604 99 77 56
-0.1818517801035889 -0.1601535729837761 1.2571457848285261 90 75 68
-0.4743676172711395 -0.1340908168112249 1.2629999214719869 49 31 31
-0.7308791682141303 -0.3234840258715893 1.3777787817041873 140 115 134
0.6588494814430287 0.1548104679628152 1.1410528014758203 149 143 143
-0.0047859963283446 -0.2780301102835827 1.4274701288318177 144 128 129
-0.2803046003467866 0.1212419403075188 1.0837133118839761 62 51 33
-0.5649834989211591 0.0397309225231174 1.0979947055273378 68 74 70
-0.3125001291665069 0.2194975272138150 1.0034758799341004 61 57 56
-0.2969101146045123 -0.5035583026877951 1.6194235518806017 149 130 126
-0.2146396364744940 0.1198039918978611 1.0873065233684023 138 127 95
-0.2547788825528634 0.0575510820385112 1.1075674391754848 114 105 100
-0.0057694832206465 0.1002093830757836 1.1365523497002656 112 94 82
-0.1826379095415886 0.1040499111619135 1.1073766270813030 132 128 101
-0.3409843349632051 0.1285313719372230 1.0688160872099697 139 110 114
0.2526477156263340 0.1444166299364429 1.1072610352051100 100 115 112
0.1013091754621628 0.1458790817908582 1.1016023770874530 59 48 30
-0.2654387989621055 0.1867599796974407 1.0316298466970750 139 113 124
-0.1337906141354298 0.2356741640156831 1.0214814148048170 118 81 98
0.2658054168452645 -0.3571580116808013 1.5464949879459198 113 50 67
-0.2357511605238730 0.2325290085965300 0.9966508075777533 145 128 134
-0.5151895739169670 0.2223128124283867 0.9595040454005429 128 103 109
-0.6899902978830009 -0.2374743599359386 1.3102424982033170 147 122 143
-0.1465704284610249 0.1035446289360655 1.0864732487388111 128 106 92
-0.1701557449872003 0.1088744583885662 1.1038132612792126 71 38 0
-0.1989596727954618 0.1164882027116849 1.0950020123769728 146 125 96
-0.6957584940165299 -0.1365877535933097 1.2248355869742700 140 103 120
-0.6125707649484941 -0.1173061856912358 1.2144511546539840 75 69 53
-0.0933092311669804 0.1327716711058041 1.0864577894208673 141 127 127
-0.6600321175916369 -0.1394249793687180 1.2461442405917882 128 130 129
-0.6835409892137936 -0.0201206919281243 1.1345848144196895 58 40 40
-0.1865301650636301 0.1730129857211404 1.0456774362024603 133 72 90
-0.2441791854125265 0.1798755708094149 1.0374301808150168 161 119 139
0.1055065138147323 0.0575415197101377 1.1729797240006752 134 107 98
-0.2577258417514199 0.0575488316942996 1.1360028983759294 58 49 50
-0.5070144011572353 0.1903466929880630 0.9881569030028439 125 82 102
0.6463221172556678 0.2252696455834999 1.0799658160300947 134 144 135
-0.5071853689823070 0.1948078544042466 0.9784742321518417 134 95 114
-0.1030694944405797 0.2134459508373420 1.0246266233825292 124 91 102
0.1138489262333027 0.0901908801346325 1.1481688013985136 113 43 54
-0.0432296126032167 0.1137238448131343 1.1096390062678549 59 65 53
0.5905430101098047 0.1868461866663969 1.1052073118888608 65 50 45
0.9250256985301402 -0.3359251217949204 1.5919863957997735 108 121 104
-0.4139055447182343 -0.1189820321577662 1.1955401845594364 101 106 109
-0.1081026299831211 0.2346255646737742 1.0066981979751906 135 120 127
1.0602904218483755 -0.6920197570070244 1.9246083782955974 159 147 171
0.9520262917678110 -0.6908811713694337 1.8604931286878834 165 156 177
0.7097358983805880 -0.6827006392126457 1.8947438431392514 143 74 118
0.6276479721936197 0.1976888648099000 1.1013268408674883 120 126 126
-0.5926191952525695 0.0968415399069952 1.0459893781760403 46 59 52
-0.3162172482660953 0.0752080474581702 1.1206745482514939 75 68 58
0.0697014710189086 0.1270648666448107 1.1116035525496091 150 145 126
0.3241640129712828 -0.1455713437569200 1.2710810363367762 110 106 79
-0.2242894616318068 0.2347815911329164 1.0086079504647048 139 117 120
-0.1085087523968259 0.0562062171821264 1.1536465330529273 98 102 105
-0.0371307574205041 0.2267629266284252 1.0178413422720163 104 114 115
0.3377864449227424 -0.2080664997891216 1.3762097827158553 124 131 113
-0.7245120588084496 -0.3137659887512366 1.3660343385218552 145 121 143
-0.6838006440125831 -0.2765883506691313 1.3512488005951944 49 43 43
-0.4378043038779395 0.1643738564325727 1.0223540787971734 92 66 75
0.5324337414545405 -0.3968419919839578 1.6120473088597849 149 145 142
-0.4213860662283403 -0.1947594671358895 1.2815217713895979 56 62 60
-0.6977800408414219 -0.0093736232951025 1.1203040141018827 121 109 119
-0.6829166794836374 0.0012421447580397 1.1162147639853151 66 72 70
-0.3521083620044840 0.0874604396256006 1.1019095942722450 120 106 93
0.0784161769164525 0.1046957953663731 1.1239109684761728 105 77 76
-0.6870135483322770 0.0293758090800139 1.0917447487734568 90 93 82
-0.3374493778350680 0.0646040409466685 1.1244450711625922 64 49 42
-0.5563989959944933 0.0372567824763415 1.0921453816340034 64 71 64
-0.3288691157420798 0.0777255842757874 1.1142795022775094 134 123 105
-0.3338993382020944 0.1353260839511895 1.0629977923686358 139 64 84
-0.0976493440656706 0.1425932563784314 1.0816382646032670 120 86 100
-0.3054074644372550 0.0708609444321752 1.1195886059293245 132 119 103
-0.3534071762676150 0.1797740858230596 1.0303943323361422 84 61 69
-0.2242876751801343 0.0883791079893633 1.1147248364725093 88 55 12
-0.4715468062010817 0.0916510744237418 1.0777040013665549 44 50 38
-0.3467469429256836 0.2014257211635768 1.0156615003435823 60 50 49
-0.0254403227643261 0.2144574032629883 1.0245096761736738 24 41 31
0.2173900485142693 0.1450982151446946 1.1081410464602204 105 125 116
-0.2203069382374628 0.2314846180290852 1.0009919881196385 91 72 76
-0.4723097468401238 0.1343614240464949 1.0356411905416654 65 74 69
-0.5395642602857511 0.2296357625379150 0.9528611233473028 75 37 50
-0.6933303555045773 0.0203557199110552 1.0962636203437859 62 55 63
-0.3661902585859044 0.1903862079087519 1.0198133333188533 125 109 119
-0.2919227296566273 0.2300194856640106 1.0025376749410053 75 72 79
-0.4155020347612988 0.2272438125498264 0.9888961286958556 111 86 90
-0.5240980361036952 -0.1219718875408090 1.2415541507138141 61 43 33
-0.6339954307001365 0.1649250575260118 0.9884085917261792 75 88 81
-0.2331982912672517 0.2438236639769736 0.9942055228645954 127 105 118
-0.3135980493581980 0.2078529853307609 1.0093616966235153 87 28 46
-0.6591131397574563 0.0873356482618214 1.0455911895910304 107 120 110
-0.5609226387160469 0.2010911520158195 0.9703124775306078 93 87 89
-0.3587328645699245 0.0983616166300115 1.0923241214035067 99 78 61
-0.0546968727275140 0.1069443980226605 1.1137426774318289 134 140 136
-0.2665383547720037 -0.1351420167916646 1.2275658442198820 62 61 59
-0.5163105530198721 0.1007056628912739 1.0547337276143569 29 47 35
0.3404033294008629 -0.1116819017205409 1.2769503105491509 193 196 189
-0.3997431522458457 0.1221717396926951 1.0665621861598866 115 55 67
-0.2635882760765957 -0.3047398898861219 1.4561859576968885 97 46 51
-0.6201907222872022 0.1316256365440968 1.0212119147120469 54 67 47
0.1001401912595958 0.1521518298576493 1.0934853128276836 142 130 116
-0.6815817390697138 0.0190629883332627 1.1005261874214998 39 70 62
-0.1102077715068797 0.1752209883565081 1.0511474148854232 92 100 102
-0.6869978416933711 0.0427250560494072 1.0839159335636179 54 54 54
0.6676646795811398 0.1830478029850589 1.1131386050238090 57 62 68
-0.6850033028607641 0.0193169372606009 1.0960718523807573 67 75 60
0.7237994933450692 -0.6184538057333240 1.8237901475396905 134 60 95
-0.2524521081900317 -0.0018357566362347 1.1467846245550388 98 89 82
-0.4770073475280447 0.1341216357356144 1.0341323703831891 43 49 45
0.0613157266463780 0.0657036780103364 1.1664505084020018 87 40 30
-0.3472672112731032 -0.1476612552395048 1.2158215231605871 71 71 61
-0.4943589239252597 -0.1040660017987471 1.2325649250848330 116 103 87
-0.6816678046335127 0.0551503794876330 1.0678117767745241 137 141 152
-0.4880867802970017 0.1634028639234951 1.0115182115705967 96 97 92
-0.6573263042673030 -0.0273780414957319 1.1336777134504312 46 56 57
0.1203725765989590 0.1302609684195219 1.1127524491244409 70 47 29
-0.0632397346318237 0.1050298485907960 1.1142407570793234 57 63 61
-0.0738350601995592 0.1071184263677659 1.1152637804391974 56 67 59
-0.0712804759977545 0.1077754331004981 1.1128468614831186 138 147 142
-0.3037210571015892 -0.1076732547280873 1.1958681375371343 65 54 52
-0.2918995262131028 -0.0921217123835960 1.1836867130028450 133 126 110
-0.5043035692524109 0.1596008292225527 1.0094894197499786 67 73 69
-0.6566808383979569 0.1634579832814947 0.9950773046482549 59 61 48
-0.7195965938580191 0.0081904461219191 1.1057694827976834 83 71 71
-0.7038039533871564 0.0149776131027636 1.0983662453104130 133 112 121
-0.6377818714093082 0.1068098679120329 1.0367709626603592 115 126 112
-0.6677905076259949 0.1145270228187266 1.0224097370473766 119 136 126
0.0301527913675683 0.1484563902390053 1.0882518574601081 135 120 99
-0.5822775280985936 0.1314364523281265 1.0219546868210170 78 90 86
-0.7551731452672321 -0.0915815913003112 1.1752688773109634 146 114 125
-0.2418980235552582 0.1608752266608586 1.0517024929450673 137 106 114
-0.3946548823841596 0.1574277474878194 1.0340153639385052 132 86 96
-0.2684390098322120 0.1814565269898532 1.0345373556644324 58 39 43
-0.6118989728790236 0.1877006773946094 0.9770633794984179 96 95 77
0.1529967627821267 0.2189606686518411 1.0436662546171065 128 108 97
-0.6385663903771651 0.1757309205106502 0.9835677158272021 48 54 50
-0.5454757196519971 0.1775167643336680 0.9922002887784895 115 81 80
-0.3365303408422897 0.2006877852025280 1.0101856965288472 120 93 102
-0.2925169019314740 0.2144168572979887 1.0051411011338689 159 128 143
-0.6331508994799390 0.2099711416127060 0.9557072232773665 109 111 106
-0.5773318885927891 -0.0241536379632168 1.1373362190787597 102 87 84
-0.6603021654650442 -0.0188404939507492 1.1308422128684421 70 82 80
-0.7191586754951854 -0.0128519940247852 1.1191889422961820 159 147 149
-0.5169585365379952 -0.0035043037493478 1.1395440504125147 78 99 92
-0.6970835741425979 0.0465451119386316 1.0740133120603057 136 135 131
-0.7141581759069090 -0.0039312447311332 1.1118480699668520 130 119 127
-0.6912139581377267 0.0093349316466392 1.1065497832061970 98 83 86
-0.7000503410398882 0.0248178183414030 1.0937349836008368 64 53 49
-0.6899068839554983 0.0510140986419289 1.0745111326637364 128 128 136
-0.6819739569862657 0.0647739502782170 1.0588546283773173 139 142 151
-0.1576250117589330 0.0775595706550532 1.1324406162105805 126 97 79
0.0326171966639175 0.1455293966075857 1.0963427277025677 72 60 44
-0.4207623766940396 0.2457233713237266 0.9766020795432508 135 141 131
-0.6322252956421781 0.2009155566605220 0.9617862383343974 102 111 110
0.3737688023705973 -0.0088801731770218 1.3798287900016661 221 214 186
-0.6879694714152955 0.0699732849490450 1.0587016631283634 56 52 53
-0.6771426917752852 0.0726483307579990 1.0542089203337979 134 144 145
-0.6112203245461549 0.1859177337458242 0.9745132978700827 75 79 78
-0.9347413361480165 -0.4668656397224025 1.5123138584229825 68 35 46
-0.6748453832577140 -0.0915818996197975 1.1976568081208652 102 112 114
0.8929059272345674 -0.2981925616634226 1.5512574029992481 146 130 140
0.8070212857440362 -0.1228850680465979 1.3871270379272755 122 114 112
-0.6237101142949083 0.1939987313779733 0.9705229824560461 50 62 62
-0.8027368020957432 -0.2235891823091150 1.2968254636457999 86 27 47
-0.1873498117093700 -0.2850455354997459 1.4145178198454953 132 65 36
-0.3070862148048355 0.2154597641910555 1.0036814669265541 119 111 109
-0.7412484508657746 -0.0916610271750313 1.1846567685054610 58 18 29
0.0729274913759597 0.1160735562224836 1.1245348734049270 97 83 83
0.3444747017409329 0.0154922792571965 1.1987328542633486 83 69 56
-0.2206017021494382 -0.1287502627194371 1.2487445173846097 74 70 67
-0.7555901803915414 -0.0925156832061218 1.1781985440437510 129 104 125
0.3106938698503523 -0.4605492138464657 1.6479527298496770 74 103 98
-0.6980241607246920 0.0383639317131346 1.0803821526335278 108 99 94
-0.6848943159809511 -0.0328788975389554 1.1372774897208193 45 39 39
0.3037254378171478 -0.2727415290627118 1.4510242273729967 127 111 95
-0.6943387428581441 0.0205404632719434 1.0923007740190616 112 113 117
0.4386866728877080 0.0180311315792219 1.5561204790699203 150 160 170
0.2378412045794152 -0.0441820663755746 1.1333598489084973 90 75 68
-0.6742735126349023 0.1482260491634985 0.9973747189003864 112 122 124
-0.2629219751876830 -0.1601803259307562 1.2481228915463067 91 79 65
0.3161588769831263 0.0054908785785930 1.1717012842137406 66 57 52
-0.7835581525501208 -0.3358821718475958 1.3876809977467246 96 39 54
-0.6467334437304559 0.1585086598902494 0.9894362758874835 90 90 88
0.6377429891364812 0.2222913221479776 1.0912355323460741 93 104 98
-0.6377317400316554 -0.4337060468591479 1.4678480638688911 100 91 86
-0.0014760862075770 0.0628842640583271 1.1601836087010862 123 88 69
-0.0751683511230133 0.0908868840959512 1.1283127014311090 81 93 91
-0.0346110915445247 0.1450806383241183 1.0851519993933991 121 130 127
-0.0273422923775636 0.2171533931320010 1.0284853752008456 123 133 134
-0.6858930547032006 0.0499716693851561 1.0763786135005731 68 73 76
-0.6658380123557690 0.0592396130392509 1.0672813344467933 102 106 109
-0.4151566196329713 0.1813965220187748 1.0102956408577326 63 32 38
-0.6794666881571084 0.1426883956543017 0.9994886352298582 112 130 130
0.6835861483861148 0.1652954366637213 1.0848694646178698 92 117 124
0.5915143126575318 0.2038840011050635 1.0938388325281918 142 133 138
-0.2725741567700103 -0.1541383124023080 1.2290621351228050 133 133 135
0.3536751837095420 -0.2170365659626627 1.4551797528374302 125 133 110
-0.7148841631194550 0.0108800744477234 1.0953442459592595 77 77 85
-0.6968855536971946 0.0880221068325344 1.0412644394672650 165 153 167
-0.6587306806207467 0.1977382292910771 0.9606384272806341 33 51 39
-0.1873321219636989 0.2329739405460678 1.0008660078049092 159 141 155
0.2369033702723787 -0.2396692927816427 1.3750975711640581 60 60 50
-0.6766756867761986 0.1014427076280972 1.0324507458156649 134 152 156
-0.3718632923277013 0.0187496995249474 1.1199801231283737 121 115 125
-0.3252234167933788 -0.1073874433652366 1.1969409640283777 52 52 54
-0.6845846843926229 0.1448387292402269 0.9944948365459548 19 16 9
-0.2794772219038034 0.1895479709596781 1.0259557858986141 114 50 77
-0.6719106012697348 0.1932072836094874 0.9579834788196931 114 125 129
-0.2247005713783168 -0.1581511273682537 1.2539028103153174 97 88 91
-0.6939317824432472 0.0352054676831077 1.0906304378790335 68 72 58
-0.3070990354379875 0.0431333066841678 1.1405780901808775 41 36 33
-0.1365431550806917 0.0502401549521974 1.1541479966350647 70 45 23
0.2493343691523762 0.1011040578966780 1.1530478460496594 73 12 20
0.7921064164802810 -0.4188119321587501 1.6619980200538902 103 37 38
-0.2762487163786322 -0.1514463992598134 1.2423700395229818 44 43 41
-0.4945452567427441 0.1801189925283966 0.9984699319502613 82 45 52
0.2659447734408946 -0.0367219768537127 1.2006749142806321 129 120 115
-0.1599298404565118 -0.1571672160338778 1.2296904542717568 129 125 140
0.1098104222923752 0.1432816762717777 1.1017339173509504 124 118 106
-0.1672369099860158 0.1585253662965749 1.0592311811417336 144 108 112
-0.7208815723411074 0.0155297697248690 1.0974149503337141 140 138 141
-0.6809964653205224 0.0910686940184020 1.0377887134121948 136 147 151
-0.6991776721735846 0.1042732710771388 1.0271588274135517 124 88 102
-0.7041987623427952 -0.0476238302845795 1.1522407435383883 136 132 131
-0.7089637085609243 -0.0213690023788121 1.1276251597323879 172 167 173
-0.6990559325695331 0.1280773794929320 1.0103822225082748 140 111 133
-0.1845917010288230 0.1613772814779588 1.0595429821845870 163 121 135
0.2926818483850853 0.1935700610762918 1.0870648485987708 123 120 127
-0.2395963428566373 0.2154604080735276 1.0092012035206037 149 111 134
0.7928105642119478 -0.4656776397806518 1.7039849668137337 131 84 100
-0.2807535390759737 -0.2808389915942286 1.4341177828535197 105 37 36
0.6685768045337426 0.1848153567236893 1.1153183512319047 46 41 48
-0.4182432087897940 0.2055521691879630 0.9966235397540337 88 26 49
-0.6866843576919990 0.1110958218968965 1.0292555706319191 47 49 46
-0.6740496402406815 0.2056014758026307 0.9554911426778557 130 145 142
-0.7462322921340837 -0.0886777905823797 1.1898445421191599 54 21 28
-0.1809126526016044 -0.1249231924032399 1.2521176776769583 88 89 83
-0.6084608324157375 0.1266628750273537 1.0208451053346044 123 135 133
-0.3864141308148187 0.1795947962458812 1.0212023187861075 92 25 42
-0.0869455343194102 0.2230686917044418 1.0340728933281378 46 15 23
0.5394379613787323 -0.3994607178974947 1.6142841412135780 132 138 128
-0.3091372780386464 -0.2784803458686455 1.4284631389997420 118 101 91
-0.1421559382379598 -0.2788582962507166 1.4476216473133061 156 125 105
-0.5342845520292433 -0.2671469998960758 1.3646717464229479 164 107 122
-0.6959583399841119 0.0207602545274385 1.0934146978577037 145 147 146
-0.5599011314783111 0.0643839339435748 1.0740372878322941 109 120 112
-0.4074952680232179 0.1758949378456087 1.0187185732053581 126 112 109
-0.0043667142889755 -0.2824052187527898 1.4595377807549470 161 135 136
-0.6361996386307724 -0.1428635634116693 1.2303500988216649 128 134 134
-0.3016081007389503 -0.1355075990746772 1.1822530638246544 118 105 88
-0.6980611636626124 0.0816642684731981 1.0456314528140136 164 141 157
0.1454759321356112 0.1097119598483254 1.1321447711607100 161 122 107
-0.6721270181023565 -0.1782626920621696 1.2654087530557565 130 131 136
-0.7247112389596466 -0.0034679876068039 1.1119698645267873 143 147 150
-0.6975738748196133 0.0988795781360500 1.0313076610370271 152 119 138
-0.7238732733238759 0.0009916728291040 1.1185237327953168 64 66 65
-0.7100856097957556 -0.0012779156782755 1.1117613053648874 94 58 70
0.2674564640812050 -0.0371144521582890 1.2019417042069629 120 107 91
-0.3459906634651880 -0.1638589355431026 1.1905270061293967 253 251 238
-0.7276934625302526 -0.0181644987412923 1.1231437674422933 168 150 164
0.2699827616194372 -0.2391696141780727 1.3792520796426719 82 85 58
-0.7309361778182588 0.0371930823181637 1.0808618991014551 131 87 100
-0.7131868855629411 0.0406506343624600 1.0756894386136295 138 106 117
-0.6985530624299034 -0.1543374216813120 1.2399919704310023 145 120 126
-0.6938290035165822 0.0506241906485552 1.0727485057656525 63 52 60
0.3466635501635041 0.0017719271058084 1.2015389321945498 106 95 93
-0.6791205782697041 -0.1196479299603428 1.2126847789974717 45 33 37
-0.7545942893797873 -0.0916151108992109 1.1758060539857609 141 120 137
-0.6106512652530155 -0.0848714448319104 1.1914842906703769 117 103 100
-0.0554436058748301 0.1151942520714690 1.1090197057428595 147 152 155
-0.2835298173506182 -0.0914131622504104 1.1838885750980008 82 80 65
-0.6786531335098167 0.1084835917446749 1.0284255011342285 105 116 118
0.5923598989854906 0.1371021014579466 1.1471469118385402 111 101 91
-0.6987409255661752 0.1569002697454675 0.9860817305629184 151 121 145
-0.7048590484851557 0.0874304039513108 1.0427544750060898 98 66 81
0.3246179881435273 0.0199403904801510 1.2088558452533160 69 58 54
0.6947952394361925 0.2253247830980051 1.0852600450713541 134 133 131
-0.6857618127006193 0.1824460069371451 0.9646306044015230 51 69 55
-0.2462754990143627 -0.2901740930045929 1.4422236067672596 146 96 61
-0.4195453106986898 -0.2003320196055188 1.2813285467312066 143 146 163
-0.7053031355328739 0.0105012025192163 1.1014582275491021 97 77 86
0.0266996326968405 0.1191515559643970 1.1143182184455711 158 143 140
-0.5380260156014064 0.0381878825152328 1.0978780317238646 105 114 109
-0.3431386588088322 -0.1213153302376727 1.1538968950730399 255 253 251
0.1409956577504781 0.1107559213419995 1.1340288812291743 100 45 50
-0.6902670687328395 0.0621923614258739 1.0641775533253670 54 54 54
0.1311225330499808 0.0933372416504679 1.1479232161939787 148 132 107
-0.7007811620554121 0.0893460254169259 1.0390515222952768 79 67 79
0.2280273224383145 0.1840606904287374 1.0789669239737896 125 119 105
0.0747465684429595 -0.2733671777431759 1.4503967916076537 120 103 87
0.7359290700126653 -0.3053215506982083 1.5559875319652940 79 18 25
-0.4326763388677897 -0.0751516680309257 1.2214838310062539 54 57 62
-0.6407612268478274 0.1608533177334289 0.9838843662816982 116 129 122
0.6947985794551736 0.2003572749856579 1.1092299012644085 88 71 89
-0.3309678914920372 -0.1086590286226872 1.1933167847149770 46 39 29
-0.1414334683302337 0.1095870342034475 1.1082903097951451 135 128 110
0.8151505407071519 -0.3061641168694751 1.5583497037299527 151 131 104
-0.3351434894747468 -0.1131500351827605 1.1835374636237699 110 97 78
0.2483566112506481 -0.4721654669865442 1.6575864083392757 81 95 98
-0.7857649428411301 -0.1027617113428770 1.1793094620625200 95 34 52
-0.8031633478097133 -0.2215346117501579 1.2893399144924276 71 18 34
0.2412814695198833 -0.2510440014458153 1.3623599475756187 250 252 228
-0.4298082725701058 -0.0749652536246984 1.2190641240670137 81 82 87
-0.2737670332102880 -0.1395324829608480 1.2415019630677016 254 253 255
-0.2704557048018419 -0.1406671327809737 1.2311334119813730 249 254 255
-0.4234332741351323 -0.2108424118040319 1.2816981024736374 114 117 132
0.2591819607951051 -0.2396120937940192 1.3882482414378829 92 92 66
-0.6723746787566252 0.1729121256939774 0.9749244346679847 83 103 102
-0.3740769521677150 0.0173408675137470 1.1185925401789720 138 142 151
0.7405935257724667 -0.4621431439747191 1.7009601233242733 127 123 112
-0.2943692367738075 -0.2730434231672671 1.4210256336448661 128 109 105
0.3179536167534591 -0.2554236676584730 1.4604593341427288 54 55 47
0.7859312309701866 -0.2045588946172479 1.4817293010906178 121 125 128
0.3921235861848296 0.0569354414397646 1.7066363990001903 180 170 160
0.6289811324042671 0.2203529576203448 1.0806681843817727 127 123 124
-0.4350659743188752 -0.0498766727004522 1.4387312184418193 146 134 120
-0.6424735302064933 0.0444242806982382 1.0874885319032328 66 82 79
-0.3381897557421851 0.0641154822066474 1.1290713894922497 60 42 40
-0.0021134013844377 0.0746830641585574 1.1511450902509066 83 47 33
0.0320768935937544 0.0757342619859075 1.1527235020146516 149 106 100
-0.3124799525000132 0.0723885935225278 1.1201584560704829 122 119 104
0.1651478485139561 -0.3554842075790907 1.5418593084341143 109 95 84
-0.6953625186697180 -0.2138596965743219 1.2897068572127277 142 113 135
0.0519569187192430 0.0836289789750813 1.1492161996229433 114 85 79
-0.1674222115780916 -0.1734394517001856 1.2349826153690386 96 95 93
-0.6802661713503620 0.0871888138496078 1.0436793464395575 110 114 117
-0.6577711436531696 0.0860480824074855 1.0430975932641848 103 114 108
-0.7119641021661978 0.0891339966948798 1.0370694934983764 143 108 128
-0.1484438840087138 0.1126964405389114 1.0999585737049482 90 49 27
-0.5640102242304450 -0.3196362536692935 1.4118613713141621 133 138 132
-0.5252798551672958 -0.2747053886613697 1.3724323178522035 146 98 114
-0.1570152026200997 0.1264921232028446 1.0945060610332780 96 48 12
-0.7277517596798064 0.1105287698605231 1.0257602728491149 152 108 125
-0.2857181541018720 0.1279087172835928 1.0769620876143939 77 63 62
0.2736246354310670 -0.2482452006729908 1.3606784165690473 109 104 101
-0.6573995172660027 -0.1819053149636731 1.2656650367191444 64 68 67
-0.3092513127477315 -0.1771493471991389 1.2398790172516414 150 146 147
0.0287281746117269 0.1058562708701508 1.1276988385902542 101 91 90
-0.7078721928765800 0.1473782587597683 0.9917223789597147 83 52 58
-0.5551604467433983 -0.0854556145810335 1.2011506701445220 145 142 125
-0.4660534270554114 0.1908792917377831 1.0101144668023661 74 34 35
-0.3131145688278177 0.2271335033179966 1.0191105586233120 132 124 122
-0.6373218128556077 0.0066198731235466 1.1088866010974130 59 71 61
-0.7208692903673243 -0.2741316633121706 1.3360755493805159 143 99 126
-0.7020859685787281 0.0634409409342700 1.0613703434048414 145 112 133
-0.7275642002078165 0.1212889432586289 1.0130759068273694 158 119 150
-0.7376928704482342 0.0824300529150155 1.0459023340088434 136 82 106
-0.1652402924376366 -0.1488960811674794 1.2439258634441355 73 77 76
-0.7013717632905100 0.1427880503595217 0.9986155179570374 146 114 138
-0.6939880062690653 0.1451391599655071 0.9945379396445395 134 102 123
-0.7053677418091081 0.1486843468886257 0.9941393588346664 142 109 136
-0.5891872140336538 0.1518053288543652 1.0060231000241817 95 102 94
-0.0261672655170637 0.2252267539966220 1.0198885395712978 96 108 106
-0.7032973067425600 0.1550031335460711 0.9909262979252680 87 67 78
-0.7223392457962934 0.1064431654978306 1.0296887937922670 139 94 125
0.1235960207304702 0.1280238328166262 1.1135971324346763 104 86 74
-0.6784058026213606 0.1673804784815213 0.9821817648813461 95 107 103
-0.7358694214028636 -0.0478900928468733 1.1432631255244001 138 121 127
-0.7160057066660620 0.1741665381097713 0.9750630076786578 148 124 146
-0.7060150923971845 -0.0283194057099695 1.1327815587525276 127 129 126
-0.3669478574625284 -0.2868467094967753 1.4300786113257420 76 57 51
-0.7114773302669956 0.1268075029499127 1.0133788331807916 99 65 90
-0.7021429179407557 0.0096552372468590 1.1089595533871992 117 90 97
-0.7088706612233869 0.1333112435637983 1.0109391762277431 129 90 109
-0.7167950033210398 0.0141918496995626 1.0984009714782039 91 81 90
-0.7384542397980812 0.0154141168396601 1.0972288605786895 79 58 65
-0.7504790669412337 0.0209789607116760 1.0898488753654190 127 92 114
-0.6866470374222414 -0.2850047667618093 1.3602660573335770 56 40 53
-0.6506438581365581 0.1602836742622288 0.9904100102160434 101 107 97
-0.6575793561458987 0.1653491144159333 0.9959337882787734 39 49 40
-0.7015964979406482 0.0492625951979633 1.0700392436363415 168 148 160
0.4634088977047384 0.0728589243781690 1.1874577166541318 132 113 109
-0.7053363063006490 0.1669249347690313 0.9791167218170838 54 35 31
-0.6830597579321910 0.1695425847932230 0.9752631198191617 54 59 53
-0.2313390340926273 0.1999848298446718 1.0220571727805259 113 80 87
-0.7520406385507254 -0.0077158829335300 1.1121610848463213 169 135 159
-0.7410379837963066 0.0093833638902050 1.1053689152887338 88 73 80
-0.7273941340020029 0.0947053493012678 1.0343065300641641 178 133 162
-0.6060812034990347 0.1271171194848331 1.0208112775291747 137 143 141
-0.7223785900080235 0.1375252760643121 1.0054124240201672 86 54 75
-0.6998483535580986 0.1473230658529301 0.9947055412600031 98 67 82
-0.7089384265019489 0.1637654808411911 0.9771897292219205 146 123 133
-0.6716495170038606 0.1791523989126078 0.9688169535169315 111 119 121
0.3188382128126143 -0.2951187178100239 1.4972030942768293 91 80 52
-0.2811143084572393 -0.1201277615695567 1.1802922321976386 255 252 255
-0.6957460844503440 0.1033363880607235 1.0283430161720952 168 132 158
-0.2902741273812884 0.1167751103602162 1.0888065951233146 128 116 116
-0.4888499497158741 -0.2902201296888874 1.3975659803543743 68 26 38
-0.2932727893509564 -0.1041628626698146 1.2300785238863257 110 103 87
0.0307192436527297 -0.3054727277888191 1.4865775977108950 127 109 99
-0.1642465820436238 0.1287890874406014 1.0849279075982745 160 114 64
-0.7392586586739486 -0.0791284728898437 1.1683292425976335 127 101 112
-0.0161172535668687 -0.3201524819508426 1.4915259775307887 147 130 112
0.0852465182308886 0.1115654532933845 1.1259197392661398 119 100 106
-0.7060436828447958 0.0908884342401858 1.0364438239147722 129 96 113
0.2282431972823613 -0.2690800491008050 1.4249298803306818 44 56 68
-0.4211665186888965 -0.1651812244142667 1.2479072697490468 201 230 248
-0.6900030132598896 0.1698533905251908 0.9804026062409551 57 66 73
-0.7314188199065343 0.0046795864483431 1.1068018958500123 109 103 113
-0.4045494331963395 -0.0121664434902364 1.1264527858867446 150 151 171
-0.0550839974341998 0.1172474841248804 1.1080253426085336 153 149 146
-0.3361781239596699 -0.1344425735268705 1.2199766756905941 34 35 27
-0.2274994152471752 0.1631836021793345 1.0542695099156181 159 107 119
-0.5576395095941062 -0.1473235018048250 1.2560693490062886 103 72 78
-0.2815274485893096 -0.1393411323232361 1.2432001596729856 197 197 185
0.2753454203480206 -0.2423162200681894 1.3720667559234156 252 251 255
-0.1597419836645778 -0.1546868987488003 1.2451003766759767 110 104 130
-0.4636449275882925 0.1858256333669200 1.0037243129433377 67 22 29
-0.0876156314292186 0.0676224408055082 1.1462454263828032 108 118 120
-0.2490039643237192 0.0662146233224319 1.1332998392529148 122 90 95
-0.0599864396743058 0.1322842940100712 1.0944331433033672 66 88 86
-0.6831710264736871 0.1290679092101309 1.0117513337084407 102 102 110
-0.6807718405657084 0.1316594772470794 1.0074946080539899 57 58 60
0.1507999458945466 0.1690791304608822 1.0853583884750164 105 130 127
-0.6983821465901328 0.0248195456268043 1.0902572350209137 30 36 26
-0.7232158402373546 0.1542693788880473 0.9897249267478946 139 109 133
-0.5299291600817198 0.0292798344654167 1.1102657195511245 118 139 132
-0.7174059128797332 0.1675097487990135 0.9771982425992924 94 71 91
0.3452748704155142 0.0053688806655273 1.1983941972742160 132 121 138
-0.6773726054622639 0.1319982482788950 1.0093352814252678 127 130 147
0.5896242924502804 0.2179999626860570 1.0827375518639244 114 112 117
-0.2907532571252843 -0.1111473428163698 1.1932174274908063 92 88 87
-0.6283629294043783 0.1800169872928825 0.9824522448645624 103 107 93
-0.6184247069269991 -0.0078965877851113 1.1261797335607067 49 54 47
-0.1359919681798132 0.1027005034895811 1.1123872962142278 135 103 104
-0.2994593663159216 -0.1035702160668924 1.1970885883784212 216 210 220
0.2397017957036439 -0.2500887053157620 1.3595027984814059 255 255 247
-0.7309731618116160 -0.1601089248285868 1.2371614734096710 129 128 136
-0.5179505842908969 -0.1312342715521623 1.2472372523728579 65 56 41
-0.2860573861104845 -0.1280001970184175 1.1963635225059579 105 96 101
-0.0177043892210838 -0.3140078255154389 1.4900340911870360 158 132 95
-0.4219810885860153 -0.1881907424989262 1.2949275500535566 248 245 255
0.0205887270410016 0.0939299652513859 1.1354058868724184 122 76 26
-0.6767904636139801 0.1161771104148351 1.0200364748785447 93 103 104
-0.3021075402970633 -0.1037014949120215 1.1947847827798128 137 131 133
0.3073340800398138 0.0138927411282707 1.1844935164273613 69 63 67
-0.1969974821593306 0.0348339078038099 1.1364248030680204 83 50 17
-0.1397184384928608 0.0428683222327811 1.1418942124307641 78 48 38
0.5421032665848557 -0.4038509516040421 1.6112517310095049 116 125 120
-0.1636990078516888 -0.1408853379081905 1.2081168987718609 88 85 80
-0.2994390465703993 -0.0903018780500741 1.1805558791650270 123 113 112
-0.2388990686626402 0.0210601032182650 1.1529056117815821 59 58 56
-0.4402682257023966 -0.2080480042946068 1.3774537620579710 151 150 155
-0.4812204108378914 -0.2151052348898145 1.3435478464776469 93 92 90
0.1605052098545712 0.0481724598000830 1.1782983671559697 82 35 45
0.1499242098557573 -0.4267295409992610 1.5818367497949772 86 107 100
-0.6006876372275982 0.1448500132705370 1.0123790273100819 106 108 105
0.1999536060203717 -0.2679534666779683 1.4789013868593539 78 73 70
-0.2896293850141961 -0.1034832360648439 1.2172852976507251 98 90 105
-0.3283106092316254 -0.1662324523985056 1.2443670399406319 40 30 21
-0.7137427001114869 0.0414292727690817 1.0763167880775928 144 117 126
-0.4169107937540699 -0.1705040180972339 1.2566857331795467 69 74 80
-0.2753082428618607 -0.1288797680253958 1.2098197959641595 142 134 123
-0.2343818194944343 0.1597337679045811 1.0570900613354650 92 72 71
-0.7063499728226013 0.1181036075725143 1.0167755165430858 160 117 145
0.0522499830527607 0.0872302431727185 1.1445293848455171 116 64 68
0.2676277080789727 -0.2443615933164131 1.3913609988347231 192 187 168
-0.4222824622196224 -0.1945605949769008 1.2778201659409658 141 152 174
-0.6676691181355858 0.1149731622656404 1.0228103328331171 98 111 119
-0.7051751821822613 0.1314863165332021 1.0123975045563571 68 35 52
0.5707650164082919 0.1512586937625330 1.9583939499326932 189 179 180
-0.7389975201128050 0.0843154973985863 1.0480098652349887 124 70 94
-0.6831847414588407 -0.0788852955154962 1.1809677968657344 160 110 135
0.3560625787787666 0.0058051664503438 1.2095107112724643 80 80 78
-0.4492913886781389 -0.1769112873590213 1.4219356760645092 181 171 162
-0.2805995503632101 0.0302785333200623 1.1276052537054213 65 38 11
-0.4135702694987722 -0.2089755883521685 1.2844012836441192 93 89 90
0.0741163711273362 0.0865192732903319 1.1503803391346670 118 46 49
-0.0320274886388964 0.1129717470537098 1.1143612582853342 137 135 138
0.4130114007923641 -0.1698390492067244 1.5919600629656454 138 141 86
0.2701176532671047 -0.2404103012147920 1.3824567742410370 99 100 86
0.3605505867874280 -0.2091186526406057 1.4869808668326376 255 255 244
-0.4102876644958016 0.1230648542952919 1.0687530591980894 125 108 114
0.0881587246717038 0.1513192241610054 1.0939394478117543 133 112 107
-0.1053004429143534 0.1262361587507130 1.0971103061111178 76 35 49
-0.4922225253522085 0.1738142012718215 1.0055396004274084 111 102 97
-0.0134844135000016 0.1068566936835027 1.1291460514191278 94 71 63
-0.1689656233139868 -0.1443737441473645 1.2512236829968746 163 165 162
-0.2917870481361417 0.0673300201885949 1.1255520955546678 136 110 83
-0.5574837020937478 -0.3179928009299738 1.4099246762540536 102 111 108
-0.1195534194881286 0.0851210747965450 1.1277189655663529 118 129 121
-0.4166052802482789 -0.1758561852442243 1.2530346472667517 247 253 255
-0.2414431934756371 0.0841531150352079 1.1173050882269724 85 72 63
-0.6993124497159595 -0.1525500738436886 1.2341774286676199 79 69 78
-0.3496143088552117 -0.1478120994791975 1.2254382140854838 96 94 99
-0.2129583955010863 0.0938886257683910 1.1122232943094392 152 116 104
-0.5608384747191604 -0.0980215492543123 1.2116039958727991 131 122 105
-0.1826200026148189 0.1036430225737657 1.1071374354608987 155 144 126
-0.6506954444831214 -0.0801738516821236 1.1757659595886722 90 106 106
-0.6519574770633364 -0.0571149543686773 1.1616615936564922 95 109 112
-0.0864904011914183 0.1459490782626826 1.0786055296771682 138 133 139
-0.6348422847749083 -0.0243063861550632 1.1347106932194668 79 102 92
-0.1693721303203102 -0.3468864200938539 1.4991580496811354 102 85 77
-0.7581388634299394 -0.3016620148882559 1.3510942503412315 142 95 127
-0.1585326602849044 -0.2736621428685218 1.4387219571367387 131 99 102
-0.7350632233254720 0.0178597886628997 1.0892148534335193 81 67 80
-0.5553998790104741 -0.1786634028829995 1.2829199031053076 132 119 111
-0.1086247029866460 0.0592255232014526 1.1572572746969647 88 93 97
-0.7169073376267715 0.0893845807366392 1.0371080321066741 110 66 93
-0.6745424532685271 -0.1388863135280258 1.2282148214642765 100 116 113
-0.7222673456305861 0.1657004701564329 0.9774421184999189 140 116 138
-0.6952651158487824 0.0531916534445413 1.0682609863378387 157 142 145
-0.7255962847971990 -0.3151785390358527 1.3621231515139298 157 127 155
-0.7411756364028869 -0.3094984699528253 1.3624810168109098 137 97 131
-0.7115089979896129 0.0630795101261494 1.0585865740355556 188 135 165
-0.3458682777461943 -0.1144528715152268 1.1699068559795085 255 251 249
-0.5545349233908181 -0.0567645028026501 1.1767086316403916 128 123 104
-0.6753436828237989 -0.0822366219326945 1.1878056446503134 128 149 154
-0.6865862106308066 0.1597669072105383 0.9871716110379634 46 47 51
-0.7038840068642793 -0.0407902458382933 1.1539082173725945 71 63 74
-0.7085095753350382 -0.0152996145863653 1.1088242338602949 82 79 86
-0.6579721296883234 -0.0001886320605369 1.1106228602097532 70 81 75
-0.4299584628987602 -0.1598359656455481 1.2608801280228938 65 64 78
-0.3766701726076853 0.0730767971530517 1.1135513923559115 57 51 35
-0.6944551135943012 0.0712778739771776 1.0579400449922087 109 89 101
0.3696035646373800 0.0093002905378021 1.2390776877871241 67 59 57
-0.7039235781770747 0.0713706354527475 1.0492773724961586 148 110 131
-0.7170001852035167 0.0121614984033250 1.1059178331037496 135 121 136
-0.6085673090795571 -0.3342861697585575 1.4133251186780125 122 79 96
-0.3319375961890929 -0.0949119749259955 1.1825864824968666 77 74 57
-0.6556423973608575 -0.1653327826695771 1.2472236606532165 110 110 118
-0.4111146143985031 -0.1660932566989162 1.2462575946040535 81 80 76
-0.6980141637593691 -0.3379934448233117 1.4060831792500790 115 93 116
-0.7637175185960077 -0.1629414078751328 1.2452906297350030 71 23 37
-0.2663944152472096 0.0363737311298709 1.1323605306923952 81 43 22
-0.1990328404250804 -0.1580787082794307 1.2401471520620955 87 81 81
-0.3719047390617454 -0.2845520614314328 1.4284633253732189 136 117 111
-0.4800828670376295 -0.2795394840394023 1.3899792793762289 101 89 93
-0.3006743393631786 -0.2768285458989493 1.4264402134312082 132 112 103
0.0002244984592937 -0.2805004538944714 1.4647620970411419 105 94 100
-0.0441156775641476 -0.2787647465586139 1.4578173863063555 86 28 26
-0.2880300879620156 -0.1017472054705227 1.1982521137492212 89 88 94
-0.6905359099642431 -0.2175874560412221 1.2912274149529364 147 124 142
-0.5050876482679444 -0.1928102048259420 1.3078419729392279 109 112 101
-0.3468024316557189 -0.1439949863283702 1.2235172419488074 151 136 131
-0.2995557224448165 -0.4147461457256916 1.5457394192844438 131 121 119
-0.1594021400588508 -0.1371934566450576 1.2437525293571110 96 97 101
-0.3352649754602710 -0.3357996095709737 1.4741987124713645 82 61 56
-0.4107128530368733 -0.0038235000010050 1.1280693475893577 97 112 133
0.0183909654049676 -0.3642367495772482 1.5270424601007118 150 137 128
-0.3490519236362099 -0.3494470311597726 1.4821508192968931 146 127 123
-0.0682325584483616 -0.3497782565508268 1.5117558119558347 28 53 50
-0.3330138558038788 -0.3369993924923967 1.4767821592307284 135 116 109
-0.0994487734011328 -0.3416056236468052 1.5003011169834934 47 59 59
-0.5018658988119667 -0.3210501045750651 1.4186468183894123 97 96 101
-0.5299462136478178 -0.3139161333557238 1.4094507775550587 44 63 67
0.0270531918059271 -0.3177696940079092 1.4933372600883028 158 118 118
-0.0885178376674983 -0.3032400671858586 1.4727922542453256 169 135 133
0.1242227804387889 0.1555379492861698 1.0953802569096969 63 65 62
0.6145228707605633 0.2079544113971314 1.0934211282253841 143 121 124
-0.6343119561147643 -0.0019436025251170 1.1165138264220855 118 125 131
-0.6074461421286919 -0.3772048212885992 1.4538818838134970 126 78 102
0.6442848222176956 -0.3958121485961391 1.6291521985843702 44 9 7
-0.5088260215029780 -0.3942016227893004 1.4912197550183610 155 129 154
0.2609627713598205 -0.3519260137071265 1.5429074791888819 161 137 135
-0.1549363841994875 -0.3805276609719843 1.5288691991693970 105 92 86
-0.1212298592934872 -0.3679650830648117 1.5215455779955245 88 74 61
-0.5950999668607049 -0.3598723779450314 1.4381367156214502 115 61 84
-0.0111449044674849 -0.3178767399941325 1.4892954085773360 104 77 56
0.0221796468151184 -0.3154205346384792 1.4935601766184845 121 49 61
-0.3858601559768804 -0.3294100401498886 1.4632348165412676 120 107 99
-0.2185205551716498 -0.3303560814785336 1.4823972871593345 141 121 112
-0.2319156738860074 -0.2835515777675515 1.4439903358825277 109 55 11
-0.4635316989851326 -0.3216808965882374 1.4360741491751823 148 137 135
-0.2276483865013224 -0.3205888144181543 1.4726807433005913 153 125 121
-0.1208524501346731 -0.3020753144762745 1.4665038806388351 163 116 108
0.1018563387129006 -0.2941234435519513 1.4864993226359815 148 136 124
-0.1306760262256549 -0.2801847161628044 1.4466071505205413 175 139 103
-0.1264965156477575 0.0989895247612517 1.1187245089650799 147 137 135
0.1476622767149616 0.1043016649494294 1.1416111070558046 100 49 45
-0.3283765068197317 -0.1680923198389480 1.2470423341397361 110 104 104
-0.7258607504199054 -0.2232099855372881 1.2984227845807705 142 125 141
-0.3454689746022865 -0.1688362280721753 1.2185269990162164 96 88 85
0.4644456543148974 -0.0006384851734319 1.6719614744329443 111 107 98
-0.3494119318710994 -0.1686749668079935 1.2251540483908823 176 171 193
-0.6995539342739401 -0.0307884144455906 1.1377209776989636 111 107 108
-0.7299104958770932 0.1771527879241997 0.9659595516418900 121 122 127
0.3445651065006389 -0.3839573737657789 1.5852973813946107 162 148 137
-0.1226164216433032 -0.3358986478999386 1.4931462121969867 162 135 126
-0.3285993139997787 -0.1034791299530783 1.1871764502996434 183 183 181
0.3859004939170370 0.2219674385395143 1.0655621632593413 84 76 65
0.1554584987876505 -0.3072781868770681 1.4980959052748481 116 97 82
-0.7206058452322471 -0.0424563220063891 1.1424658651249238 126 113 120
0.1379877270790022 0.0958330468683008 1.1488098863595380 109 66 49
-0.7023005864520401 0.0833786314093082 1.0446028518706820 59 36 54
-0.7383948252716803 0.1394561646517983 0.9935211193219160 122 95 112
-0.7313197214731845 0.1650885980521731 0.9794175557155499 138 115 135
-0.7623826618713146 0.1966269343426448 0.9933681846710677 103 98 104
-0.6104716126375316 -0.3853058711037132 1.4608484560919279 142 124 138
0.2404935360343466 -0.3756216449610145 1.5620526354887418 116 48 73
0.2726852841836164 -0.3630505381360988 1.5529210907630588 135 104 101
0.2592242779549948 -0.2396651016098251 1.3866606684088805 118 114 111
-0.6390809769107920 -0.3792377171524094 1.4416360150747629 105 87 101
0.2537708812141892 -0.3804665824670465 1.5654133882011958 107 32 52
-0.0017362474246555 -0.2729558533196926 1.3992556819068636 51 61 63
0.3613416287754044 0.0244821008587016 1.2498254939004561 71 62 67
-0.3027683841823338 0.0345496066858855 1.1287225710859625 53 44 39
0.0731911990963975 0.1059982116212133 1.1322113529245306 79 51 48
-0.3598412298595466 0.0403515033848404 1.1249919980275267 63 50 34
