ply
format ascii 1.0
element vertex 696
property double x
property double y
property double z
property uchar red
property uchar green
property uchar blue
end_header
0.0605852190647134 -0.0101706706236132 0.9743923952492733 234 223 191
-0.5535732632203773 0.1073408042236175 1.0096192217306355 117 114 109
-0.0668224493984254 -0.1403427822725917 1.2146471748007290 82 83 77
-0.1520295837146790 -0.1107730070498136 1.1006986140905073 89 74 51
0.1421907244429631 -0.0013546586457322 0.9561678382052361 90 84 58
0.1423833890472139 0.0113838028022135 0.9600146979314560 56 48 25
0.1305526244479401 0.0279598883652470 0.9411080893479439 44 42 29
-0.4333260252927724 -0.3358712226602728 1.4515842420853129 131 126 122
-0.0688443165933370 -0.0702797100178483 1.0515579257561953 81 71 44
0.0235904542911596 -0.0574751475848849 1.0547727810357701 79 71 50
-0.5601974542917143 0.0383736350298012 1.0788846636940619 46 45 41
-0.2936351038264697 -0.3418814967547316 1.4311969299706533 69 71 68
-0.0402751269959643 0.0065414615583125 1.0293504166046361 25 27 26
-0.2570777056546942 0.0674319882192738 1.0673242455094711 122 113 116
-0.4264077339516153 -0.2983164957339696 1.4798371020768653 101 97 96
0.0511610477051973 -0.1057802449797764 1.1542830599771505 74 69 65
-0.1045761470303222 -0.0239347654559593 1.0717417810266567 36 34 35
0.1952827284566101 0.0413121927954960 0.9705911934965658 12 12 12
0.0929213868190502 -0.0130156189162369 0.9847364534153439 109 145 101
-0.1357994471616285 -0.1307788912338206 1.1263912895729384 207 201 169
0.1605679695261298 0.0054429734159013 0.9561187097736634 222 210 168
-0.1320673841370524 -0.1061344064976778 1.0945490710796077 147 139 116
-0.1697703313635731 -0.0959949167993422 1.0891763449110159 255 243 213
-0.0069036653657004 -0.0804877663951292 1.0602045361456416 149 144 115
-0.0498599020617661 -0.0749340744876838 1.0478806770656695 122 114 91
-0.0458880366725338 -0.0738515446500789 1.0515089388759999 168 160 137
-0.0554286064701905 -0.0579975511411832 1.0561389475596947 136 128 109
0.0538754964185551 -0.0361394263561858 1.0030287881506323 255 255 225
-0.0541786888739327 -0.1063846653502516 1.0878394889040193 169 160 131
-0.0462260809609140 -0.0709688341905028 1.0508829384702083 255 255 232
-0.0600727841754157 -0.0596059726856777 1.0267276852039209 142 137 117
-0.0656524407409051 -0.0325516762243803 1.0112764099224496 54 52 29
0.0013848984765029 -0.0503203126588491 1.0195483204330282 255 255 234
0.0624764548780647 -0.0099686321779473 0.9924593786790018 134 125 96
0.1529752265561031 0.0216775573611909 0.9444307338492447 81 72 39
0.1306880080526159 0.0376888129584103 0.9375516264261368 163 157 123
-0.0537173394416126 -0.0344611822805948 1.0885058210408320 81 75 51
0.0589069273313843 -0.0376159236589025 1.0048301897407230 255 255 225
0.0041551381164084 -0.0243695559380713 0.9944358818674569 255 248 221
0.0026321467751701 -0.0848965317990883 1.0688650473182857 112 106 80
0.1052371851111936 -0.0050012056706619 0.9662897339236173 94 93 62
-0.0484112000452516 -0.0723809672500651 1.0501375573843317 255 255 232
0.0694673396006858 0.0057143213048216 0.9624002447251586 120 70 47
0.1472479004900794 0.0290395045008669 0.9375765338242265 81 72 39
0.1050009035472283 -0.0350749995566018 1.0048927482344263 93 89 78
-0.1351656701802731 -0.1058661647404811 1.0950346957808752 255 246 221
-0.0605454777577155 -0.0987983320007205 1.0852781695374518 130 125 103
0.1088661870874320 -0.0109573444231413 0.9627059217225787 107 96 74
-0.1053375311594039 -0.0707612371045986 1.0546542834946833 252 248 223
-0.0936001065429370 -0.0576458074688728 1.0309661686184233 87 83 48
0.1660098475314856 0.0065521543745263 0.9508867345252335 79 68 38
0.1022515129135784 0.0131731533244934 0.9505899139576143 221 214 188
0.0143060585802872 -0.0348873951123459 1.0051081667274360 255 247 211
-0.1384588157156332 -0.1411554510041417 1.1492982908011906 255 255 232
-0.0195568038584403 -0.0651011004584847 1.0444802685505767 237 229 206
0.0343537201952673 -0.0494846300286243 1.0089610412411623 111 104 85
-0.0030438886143402 -0.0532617618574448 1.0225927965975372 255 255 232
-0.0310364388148602 -0.0199816471229598 0.9824007735897120 80 76 47
0.0326680515751562 -0.0445917012535044 1.0142747971324955 255 254 232
-0.0131656403476351 -0.0617727179630848 1.0523535851679073 56 48 25
0.0363741477118839 -0.0534237234051510 1.0199114455182883 100 95 75
-0.0615816134727872 -0.0325832219943161 1.0390779478305339 154 144 117
0.0223691345250380 -0.0001635749363618 1.0193938371118394 127 112 89
0.0514126299797272 -0.0525737004186766 1.0254800590737572 88 87 59
-0.4320916541579035 0.2090047905577761 0.8565165947777692 66 68 67
-0.0263315660934377 -0.0935309555751569 1.0642316038747313 125 118 89
0.0572562630288376 -0.0069994549683455 0.9709424420937577 255 254 226
0.1276898096891893 0.0358080860224135 0.9745321510233665 253 248 219
0.1617020978156532 0.0024933220120173 0.9557117329638480 231 224 180
-0.0251260365236808 -0.0866120172591492 1.0846538545592608 99 92 66
0.1534366997427994 0.0194087652322324 0.9497977102878801 237 222 183
0.1290753117959849 0.0444708671138734 0.9244869850818326 200 196 167
-0.0562098272382208 -0.0767223311255679 1.0558577523255139 255 252 221
0.0925489022134266 -0.0478604128170201 1.0141807563635827 170 164 130
0.0963296634248563 -0.0423942215899373 1.0038476959628964 255 255 229
-0.1318816099000431 -0.0770574697414546 1.0612581590489945 127 122 103
0.0282518141515710 -0.0466481225029768 1.0164439656072217 255 255 230
0.0544668629820151 -0.0323645220574229 0.9982984115572849 255 255 228
0.1422014074699239 -0.0292239464824540 0.9980854846810223 131 124 95
0.1371710939568493 -0.0163279912997839 0.9759324605454368 255 255 232
0.1057332208973445 -0.0115018246578046 0.9729567406719999 255 249 213
0.0347370763941209 -0.0050414648835877 0.9836712183506680 117 112 80
-0.0821386102103123 -0.0899822934057646 1.0717907773955191 82 78 49
0.0096988617378942 -0.0217275980299878 0.9945020765083460 141 137 112
0.0842830838158547 -0.0153319946786917 0.9735431979946140 98 105 71
0.1393191171578205 -0.0120181943718759 0.9711055688483768 43 41 18
0.1270887254057464 0.0203017727636855 0.9517937207918401 70 61 30
-0.0660802383082060 -0.1083882774218456 1.0913883271261613 88 83 54
0.0965482608454552 -0.0592951406983491 1.0360927488119416 81 73 60
0.0396026914279528 -0.0396983887269647 1.0091314388567167 93 82 60
0.1105784449837773 -0.0248491426571014 0.9661270632254507 105 100 70
-0.0206519460017885 -0.0414625576909634 1.0257837929770643 57 54 37
0.0387796428675050 -0.0801970716367903 1.0169568368013440 74 66 55
-0.1428640493838869 -0.0074456408251199 1.0816515734612995 112 107 103
-0.2946682902968799 -0.2701848405338947 1.3459597725367345 118 108 106
-0.0486147129332895 -0.0768820533331817 1.0595667687082004 255 255 230
-0.1151990259075434 -0.1216401987019912 1.1143290828715133 255 255 232
-0.0051956164082532 -0.0530659808550314 1.0287404067492316 255 255 228
0.0114249535804486 -0.0238479586582466 1.0068609933431927 255 255 223
0.1605450674754443 0.0036303542973383 0.9611220758253657 130 121 78
-0.1139222581770156 -0.0731867801967990 1.0593552570739315 247 243 216
-0.0125366580456970 -0.0784996010827435 1.0633464395415833 102 101 71
-0.0122321561292351 -0.0394582600527488 1.0248790734311080 114 110 83
-0.0568484107922279 -0.0793547682374403 1.0442515509625461 120 111 82
-0.0061155328783721 -0.0889194553194733 1.0732656193558445 115 108 79
-0.0619204795453595 -0.0614548385939980 1.0389661083698696 127 122 93
0.0735425554053321 -0.0238867602781347 0.9937827784261513 105 98 72
0.1768295638060876 -0.0046841594328342 0.9706322545024483 76 62 35
-0.0403233832574354 -0.1108954958070930 1.0993241357627881 80 77 58
-0.0305575421105180 -0.4959150330385740 1.5284473169869959 46 50 49
0.1533198047581708 -0.4141326822330064 1.4389993288157186 121 114 108
-0.0244303289132381 -0.0621439591311252 1.0255865857844677 106 102 67
-0.1115009861560950 -0.0806618431983243 1.0825864655369231 96 92 65
0.0430912471816716 -0.0458765414723577 1.0276006176819206 255 252 224
-0.1547817502993772 -0.0919498088333209 1.0821264713443224 102 61 31
0.0627370445153316 -0.0569880196631768 1.0197358801089729 96 92 63
-0.0089754452563994 -0.0424881438737779 1.0193075080049339 98 93 61
0.0995835026832953 0.0096594126131238 0.9519429103430245 103 95 72
0.0852305873959170 -0.0502074914896092 1.0177844160509224 108 99 66
-0.0310121054935122 -0.0445953789502280 1.0166425290147150 255 252 228
-0.5606252139932277 0.0601295909776245 1.0647974855713545 105 96 97
0.0613756362058448 -0.0271663225147120 1.0157831969881230 76 71 51
0.2725679366926407 0.1440721001231870 0.8645266650902456 23 19 20
-0.1504624473336120 -0.1549291235362391 1.2075851696747837 98 89 80
0.1410156322386249 0.0133722926952818 0.9589767516877475 51 50 29
-0.0496394064881041 -0.0925802933289148 1.0739544005773933 113 103 76
-0.5788876831380730 0.0645201658908066 1.0457886057563655 116 106 104
-0.5316661561513348 0.1004574729024226 1.0054651788238711 24 24 24
0.0295416382955353 -0.0283461065063342 0.9899066170024181 77 70 42
-0.0852378086460912 -0.0440521208901270 1.0340755788281701 236 230 198
0.0111291114335662 0.0141222932417737 1.0195487059048669 42 43 38
-0.3045910017033157 -0.1113627488521345 1.2111573511150333 62 59 54
0.0613292469202439 -0.0079684652986289 0.9792251100159397 255 252 223
0.1670212988733821 -0.0079172369725266 0.9742230963744303 205 196 157
0.1091361654412265 0.0090866298255034 0.9429046733497625 97 86 58
0.1567978862349913 0.0144612990326170 0.9502283549308764 236 223 181
0.0436698604885676 -0.0649599765368562 1.0334573477064399 129 124 92
-0.1157397593769697 -0.1206001396455086 1.0999464293304557 125 115 88
-0.1249115566681631 -0.1067456449559744 1.0958267403525788 255 254 232
0.0467606984684206 -0.0595308261244940 1.0335779118675561 255 254 225
-0.0474357736790749 -0.0460451279194660 1.0224168123722914 255 255 232
0.1127593971779710 -0.0286254783476491 0.9989194450245673 90 69 38
-0.0785928395290897 -0.0680045122592684 1.0563049760216381 76 70 34
-0.0812232780337430 -0.0597426572224503 1.0303182594667393 55 56 25
-0.0107931901893121 -0.0618706048714397 1.0368967734532901 51 46 17
0.1507225772385990 -0.4354419076105059 1.3974130275646826 50 55 51
-0.4952826682413741 -0.3722257709736821 1.5402503324179841 99 97 98
0.1547986769119268 0.0167615823871179 0.9465620967443517 200 187 145
0.0526943942448006 -0.0398157479262820 1.0047694190625094 255 255 222
0.0888839145229081 -0.0420426901422312 1.0099741217260678 140 135 105
0.0499423796084246 -0.0298432879296202 0.9807639173344547 72 71 43
0.0462794099471527 -0.0603718850982364 1.0294290750571717 221 218 187
0.2483391675496386 0.1550555054686618 0.8420673370993067 21 23 20
0.1838321163235272 0.1924837560905377 0.8141829484931705 24 25 19
-0.1813478385010532 -0.0117084753979809 1.0939180437269838 77 75 78
-0.1307198201127410 -0.1374216078699885 1.1072897019041898 242 234 198
-0.0499394329874642 -0.1052484107734767 1.0624956543865813 139 129 102
0.1304561791695606 -0.0404603206979171 0.9916533471739828 95 85 58
-0.1073239078460997 -0.1193853719998753 1.1109473207596015 86 85 57
0.1099599536403464 -0.0016612031008010 0.9620802892482535 71 67 38
-0.1665059352895124 -0.1083389398222132 1.1041696530065315 108 79 63
-0.2149221830428083 0.1094812663285072 0.9720748420030209 61 62 57
0.1793170345851285 0.1766051907840296 0.8435903150520648 63 62 57
-0.1291325256126800 -0.1364194178718973 1.1335852163542985 224 221 190
0.1461867231318518 -0.0336448143658161 0.9822406361073084 90 82 59
0.1488358182098345 0.0157916077113440 0.9505841928468617 148 135 93
-0.0606574336149573 -0.1070331696741844 1.0943766330739917 255 254 219
-0.0410785355460613 -0.0733990395296886 1.0566775707075999 255 255 232
-0.1196315153589043 -0.1240809322902153 1.1135538139237051 255 252 226
0.0480832571689935 -0.0667419948827746 1.0406315441817231 237 232 200
-0.1796565274946799 -0.0921410242229004 1.0865473308347280 240 152 138
0.0837202779989450 -0.0104700731494810 0.9746293179063359 136 205 142
0.0698686362727799 -0.0423774883195782 1.0042443921900284 75 67 44
-0.1427812225857575 -0.1357978505592071 1.1376703986003995 255 254 226
0.1403841865076957 0.0176543607308496 0.9390713434290839 63 58 29
0.3374215049767820 0.1007789117463287 0.8767378160390156 20 18 21
-0.2100395972429619 0.0615830271739701 0.9665483314652585 113 108 104
0.0707050956648173 -0.0044919481096597 0.9664780746659982 96 75 46
-0.1051959110741407 -0.0636197895252137 1.0539658148874804 57 59 35
-0.0613606034732402 -0.0834348323528595 1.0634608039114777 64 67 36
0.1246593159633917 -0.0176853313380171 0.9802807384185640 42 45 16
-0.2122234927954860 -0.0377565972780865 1.1204110639811196 110 99 97
0.1489638282995096 0.0130399263308750 0.9506555405758278 208 200 161
0.1055246972366568 0.0321721380298797 0.9421909270904830 88 84 57
-0.2981476203429570 -0.2403885278878008 1.3053632475868167 137 134 129
0.0516461462841937 -0.0377780386929306 0.9999115749588519 255 255 224
-0.0347722865621105 -0.0981405074889104 1.0666186869230980 83 76 48
-0.0311994993583830 -0.0993507544923008 1.0675897276031667 111 104 76
0.0462622525707764 0.0170709928472129 0.9608039221469581 35 35 27
0.1315715406202791 0.0145089870312044 0.9493343484214731 51 48 29
-0.3067889784165531 -0.1284982167789573 1.2364036982045024 72 71 67
0.0013568195130750 -0.0503029013330961 1.0215754698339619 255 254 229
-0.0534150747736947 -0.0802315336520541 1.0458311862775684 124 118 86
0.1065377802323687 0.0128607148461692 0.9467580154187973 122 117 88
-0.0236286694333921 -0.0946052703266825 1.0687044438912783 110 104 80
-0.0969000191887976 -0.0622246082650988 1.0431097952519055 255 250 220
-0.0611943992880778 -0.0608683563370870 1.0378281913668603 149 141 120
0.0476368698656960 -0.0706629731535977 1.0580694299798670 112 98 72
0.0385375614405043 -0.0628443118364311 1.0310470507546894 255 250 221
0.0054985098248881 -0.0250315358655479 0.9946206837154846 251 241 214
0.0556216389120150 -0.0153981576717825 0.9769205975038903 106 97 68
0.0996046942027983 -0.0126524576869857 0.9737707251784232 59 88 44
0.0955055934809182 0.0169337203678700 0.9535937369200360 69 62 36
0.2915334121060182 0.1260077600006890 0.8454835947749405 21 23 20
0.0432020147549744 0.0254633381986248 0.9909903334102859 30 26 23
0.2351689149641948 0.0421995884908420 0.9816475205869950 77 72 69
0.0777613142463528 0.2419725151536914 0.7667525755660839 19 24 20
0.0179937743782906 -0.0464604168744641 0.9987087726734948 73 74 40
-0.3735669810649009 -0.3246747061086612 1.4100927595417729 146 136 134
-0.0225636158213382 -0.0852697199131076 1.0576489247493082 149 145 116
0.0159845237108425 -0.0372363851148899 0.9998304712511831 106 97 64
-0.1300348693749649 -0.1085321432822083 1.0947844636337374 255 254 232
-0.1659098976019123 -0.0967461321494914 1.0864240068922508 239 213 188
-0.1324496863547130 -0.1303393285373750 1.1231562817880840 255 255 220
-0.1122160660707497 -0.0724406228458913 1.0512446054804803 255 255 234
0.1624046411721261 -0.0011970012745552 0.9707246992293002 220 211 170
0.0784062252104238 -0.0046975356961031 0.9702014488737656 221 138 120
0.1031217882497312 -0.0100576509668935 0.9709515333466587 107 102 70
-0.1421971798280021 -0.0868997735449934 1.0747522806112704 255 255 233
0.1019034216222448 0.0134268156997700 0.9500073923434302 185 175 148
0.0038066839847874 -0.0614283494395339 1.0348208305556497 252 245 216
-0.1334865883748937 -0.1325729947191938 1.1286351463218669 250 246 209
0.0118350923744932 -0.0307614158813395 0.9936876066056393 246 241 209
-0.0350563866541471 -0.0943514101918932 1.0714838898002697 255 254 233
-0.0509117044316563 -0.0814832849022453 1.0600378143171674 250 246 211
0.0114158563136010 -0.0587929640845656 1.0302218550702424 222 217 187
0.0985233134497185 -0.0482722050796975 1.0152972227753667 211 204 175
0.1144821650122261 0.0270826826509439 0.9341760114146171 75 67 44
0.3293703752533979 0.1060078099762442 0.8699874001728355 23 25 24
-0.0403300419973372 -0.0479109475613983 1.0306944779547234 103 99 74
-0.0466331784017311 -0.1009025889807799 1.0861428928369525 59 56 37
0.0015402607067386 -0.1544364591601826 1.1706548027792683 120 111 104
-0.0553540727050240 -0.0567765474624129 1.0366402548288007 146 144 121
0.0114543109971803 -0.0312814452533804 0.9965274988161044 255 255 221
-0.0514940689692372 -0.0725723081337572 1.0500568998509532 75 72 39
-0.1482564659101960 -0.1359180864506414 1.1342553766209196 126 118 97
0.0543584095820960 -0.0324760324352665 0.9994439902123959 241 242 211
0.0215008827774233 -0.0240999225935818 0.9950412222476046 79 72 46
0.0795556519051588 -0.0070128959548483 0.9838770445862134 107 94 59
0.0881781227314638 0.0034822965837081 0.9512475753270431 118 71 45
-0.1594727471598149 -0.0883405787318132 1.0850266436461369 135 62 47
0.0758328763105906 -0.0104594553359933 0.9749850707067296 73 59 30
0.2222452263410106 0.0656097500967821 0.9669311238457933 97 87 86
-0.5832845079725816 0.0325285623655072 1.0837562847189759 104 105 100
0.0678840380960384 0.2204613970293627 0.7858738248217602 98 93 87
-0.0497740196591011 -0.0743987151173388 1.0491917329615734 167 164 133
0.1522382346186067 0.0093038577747674 0.9549034808023370 199 198 154
-0.7150340222108611 0.0039080764501277 0.9864575354233505 150 151 137
-0.0460374669511959 -0.0497902084007323 1.0040828420088546 102 100 75
0.0218839731750787 -0.0354449285692487 0.9953002801715439 112 106 74
0.1231289929109897 -0.0288338906529245 0.9848317546507722 55 58 29
-0.7570627099827196 -0.0049933274147989 1.2274504285697740 103 96 86
0.2227531751886806 0.1670523170875051 0.8501224093003932 84 80 79
0.0374941632928236 0.0053329414539651 0.9672811939549074 101 98 67
0.0227686323834517 -0.0579707622430632 1.0396595108959341 84 84 60
0.0533110357233408 -0.0819833415588158 1.1057719056010664 53 46 38
-0.3932852842223810 -0.2829576568503508 1.4027324686240188 99 94 91
-0.1309211936344182 -0.1416408831438593 1.1324016193627930 118 116 93
0.0996297440504935 -0.0522065175511960 1.0114495948106748 105 95 68
0.0806470054745821 0.0168132460780785 0.9606559283322982 79 63 38
-0.0800238549794685 -0.0428688773280422 1.0212115642543746 128 122 96
-0.0620899430145440 -0.0983357009673102 1.0892423043711994 118 117 89
-0.0395609516650709 -0.0609640945289117 1.0434844782829840 142 133 100
0.0877301733739893 0.0255361624401783 0.9479276902421445 98 92 68
0.0869779113825240 0.0611968919388244 0.9665276560041813 92 89 84
0.0350158878342673 0.2713858268938971 0.7395588689747407 38 38 38
0.1237171972013245 0.0385460752197834 0.9556828733393541 194 189 160
-0.5432586888537978 0.0674247246521919 1.0495130371101800 50 56 56
-0.0782716892461524 -0.0855052340812880 1.0827430609797446 154 149 127
0.1529424657659166 0.0200393685695417 0.9570955010602237 84 71 39
0.1671299833466470 -0.0083415493344538 0.9702153596623236 189 181 142
0.1702442037544336 -0.0018270031231024 0.9637632782136681 197 190 148
-0.0214479279999827 -0.0697066678002136 1.0532293105711659 110 107 74
-0.1691975384868822 -0.1010309460298299 1.0676303263060938 143 121 107
-0.1558522916709775 -0.1263587868331467 1.1359476948054279 80 75 53
-0.0740022200736681 -0.0612463564191444 1.0213115316146621 58 57 29
-0.3466440185165819 -0.2598432538003008 1.3413318367801110 83 85 80
-0.1884710456551566 -0.1246785768381914 1.2288694342957056 97 87 60
0.0058385027170873 -0.0714801889820291 1.0458389152362064 44 42 21
-0.2940761255365891 -0.1353207898031405 1.2136695021422059 81 78 73
0.0709124671268491 -0.0594006919378179 1.0082622316260408 116 114 89
-0.0520780417174628 -0.1061900658863612 1.0858524196649555 146 140 114
-0.0411116597801208 -0.0797132842538858 1.0570539289175402 99 95 68
-0.0160446661115602 -0.0528335483210204 1.0307772030215763 146 141 112
-0.1214034932019119 -0.0755264176076340 1.0657190839151176 71 64 46
-0.2546829961574648 -0.3257193336242142 1.3997597932009014 133 124 119
-0.8873919354100721 0.0238691226666989 1.1379100998414990 150 145 139
0.1245880368377030 0.0067722838217978 0.9286112776872534 70 68 45
0.3010666973373604 0.1280066874287649 0.8754743811569838 41 37 34
0.0864118361080394 -0.0255372150374430 0.9905799748140460 65 53 31
-0.0776135394366982 -0.0980739611287208 1.0760891008635944 96 97 66
0.2057317208021092 -0.0477958851526092 1.0733000068817360 95 90 86
0.1602671164215970 0.0952859041046904 0.9179269704641569 68 65 60
0.0875508203363506 -0.0418704110686883 1.0088302028674909 106 104 79
-0.1091295275047901 -0.0717723776507237 1.0539961242863602 118 117 97
0.1653043355654874 -0.0021592139387524 0.9652259592984174 165 155 120
-0.0444741722684952 -0.0780496471570956 1.0540227731242933 250 249 219
-0.0464808033459332 -0.0708809310818087 1.0500241647544375 255 252 219
0.1654901818240314 0.0060117015651946 0.9584714082549906 66 57 28
0.1451924937500975 0.0208901917466216 0.9398762107901716 130 121 82
0.1407437500064187 0.0276737053997083 0.9368001474019435 65 60 40
0.0632936242331527 -0.0556610966616300 1.0133187281632099 97 90 64
0.1130032522333845 0.0098057042601905 0.9493320771981076 255 251 226
0.1405595216266848 0.2132360763989519 0.8131979052715687 19 19 17
-0.0779551100359149 -0.0608469000587719 1.0425899997701680 105 105 77
-0.0117690171175872 -0.0112956458420170 0.9962244438674075 113 102 80
0.1003399984013648 0.1033663577175056 0.9269385028378968 95 90 87
-0.0312044950446374 -0.0607534487416699 1.0504451325116853 147 142 112
-0.1042842522701449 -0.0843169837265121 1.0662760098572603 111 112 78
0.0973196954888256 -0.1319344863654339 1.1770736713924796 104 103 99
0.1005214604964730 -0.0314527084951872 1.0123569958945966 94 101 107
-0.3498197841176507 0.0247812986944364 1.0660822469973110 73 71 72
0.0118324929049939 -0.0636474034886702 1.0261636226742161 96 89 60
0.1039283478174365 0.0103705646976182 0.9549877076174317 192 181 151
0.0897609470539146 -0.0503724263207864 1.0165335762706527 255 246 213
0.0957789211790253 -0.0523960413566136 1.0112504560674076 90 80 55
-0.0009128508047437 -0.0875745071568571 1.0522603216956368 110 100 73
0.0304955487270317 -0.0789589199243530 1.0411494669866939 101 97 72
0.0282491512760043 -0.0469103482749013 1.0055065566824111 115 108 79
0.0672742489131432 -0.0580808304663544 1.0118559463705861 95 88 60
-0.0988289521211041 -0.0660680258135029 1.0418828931690143 80 76 51
0.0417794453838788 -0.0087442831045510 1.0005599452139027 93 85 62
-0.0179048529281366 -0.0936636804059087 1.0653305967033089 106 102 75
-0.0601103773498722 -0.0501048107729567 1.0502067329890976 130 128 107
0.1924898899144788 -0.0208441648604495 0.9917540562865090 89 78 60
0.0668451921184381 -0.0532494504064044 1.0205107296611082 255 255 239
-0.1560127987611853 -0.1064363863705884 1.0834160531018333 123 105 83
-0.0185175404057278 -0.0938423184239254 1.0667153584386211 83 79 52
0.1232060313896136 -0.0377892310385534 0.9961192665710380 65 77 99
0.1128032744306906 -0.0045145574112818 0.9683023372542463 64 63 32
0.3907626656226575 0.0761807215501608 0.9032371817583349 23 23 23
-0.0748566002786365 -0.1260958163322179 1.1196634761651396 52 48 36
-0.1517752451322175 -0.1058393728497002 1.0962277005256349 125 108 80
0.0624302763676664 -0.0750344350267355 1.0747008978455410 70 61 56
-0.1913628012417538 -0.0673031387714788 1.1359106982225482 41 40 35
0.1361719323163582 -0.0525541809761062 1.0108659701788205 49 44 40
0.0071769316872492 0.0404588647642123 0.9937226905941178 109 98 94
-0.0084136083260548 -0.3811606040579010 1.4295901213396367 121 110 106
-0.1253591519511415 -0.0845624674701844 1.0691894451848991 126 121 99
-0.0092716291655392 -0.0767133249079108 1.0545414488077935 255 255 230
0.0016315908499781 -0.0434052566589407 0.9907623643923774 136 126 99
0.0575576210208467 -0.0414110886991777 1.0130447949589145 99 94 65
0.0967455379376634 -0.0159832966990651 0.9783526659944328 136 165 121
0.1127237428801503 -0.0086728124099865 0.9690243606592108 231 228 197
0.0590705601829584 -0.0156461087147735 0.9704452453849122 99 89 62
-0.0464498192831543 -0.0721322814642349 1.0464543467526926 255 255 222
-0.0106691284304452 -0.0951039083634220 1.0795100767398018 122 111 91
0.1100535515463348 0.0086966386661937 0.9468484316272864 109 95 66
-0.0008106650197415 -0.0855291819214838 1.0620943105496301 255 252 227
0.0535647908703131 -0.0435813079657686 1.0082838810544712 116 109 80
0.0853795687596313 -0.0445309504309215 1.0090552389610492 253 247 213
0.0345082944407981 -0.0049884014970196 0.9795799351877956 137 120 94
0.1067912663786094 -0.0380410365003773 1.0052774208261459 141 156 187
0.0344046024734461 -0.0692091216367225 1.0373217899768035 70 62 41
-0.0182907958876243 -0.0937465926685110 1.0764273753475011 107 105 84
-0.0880265569695314 -0.0686239066161814 1.0525748177702572 243 242 212
-0.2896180366670755 -0.3249407726567528 1.4474149596531158 126 125 123
-0.5739291729722376 0.0458159106712230 1.0570812246832995 137 130 122
-0.5385015969801364 0.1046332340727905 1.0146470607807794 55 57 54
-0.5978467124906824 0.0219948569937210 1.1011346159863200 119 114 108
0.0217189134742545 -0.0581050403745456 1.0328031530839403 83 79 54
0.0992974009424709 -0.0562629058262568 1.0451865665640632 67 61 47
0.2726900992115893 -0.5096856130160834 1.4946551649122866 41 53 49
-0.0264530469486354 -0.1058128403053237 1.1154034114179576 70 68 55
0.0361727129449602 0.2746019402380703 0.7320254044799067 33 29 28
0.0540338684222872 -0.0326360234040491 0.9990686904196108 243 233 206
0.0791392551003541 -0.0450309361989171 1.0169004338535381 87 82 62
0.1623645617380773 -0.0017835418408569 0.9636986875642158 215 209 175
0.0721972187390730 -0.0628176797397470 1.0352111447482797 154 143 121
0.1069196023998106 -0.0117981172254357 0.9704834477833080 235 229 203
0.1609354126897923 0.0031450329214904 0.9581340955685294 124 114 78
0.1521138020479221 0.0191311132037285 0.9439066705156256 220 207 172
-0.0175639129248905 -0.0876400073807046 1.0664916218770684 255 255 232
-0.0033161437648099 -0.0533476879593603 1.0230600805289474 255 253 228
-0.1256163633854555 -0.0993252490040922 1.0919487624611570 95 93 72
0.1063336703559160 -0.0336056711163734 1.0013742960935044 118 87 82
0.0804056666353032 -0.0065286841926469 0.9762541600654738 117 98 66
0.0980824432932120 0.0099971376613564 0.9577885820023043 82 73 42
0.1540808578309678 -0.0038521073493047 0.9833145204280284 73 68 46
0.1179112571582779 -0.0195968302224856 0.9776560423737859 255 249 222
0.1802352676231784 -0.4541712954296321 1.4769939917857215 45 47 44
-0.5202006008875223 0.0809447271213172 1.0668674484400278 145 137 134
0.1261854161630663 0.1220291780135201 0.9016217879332691 48 42 42
0.0733071520417535 -0.4262096084720957 1.4567708165976323 68 65 60
0.0661529498295633 -0.0565043971946556 1.0188458868634278 136 130 108
-0.0434637557330957 -0.0794791928972311 1.0473141717209804 164 161 128
0.0266176983978007 -0.0794495509387539 1.0457132358135626 91 87 60
0.0386354559281403 -0.0409142089292572 1.0028193725065813 111 105 83
0.1117747636943888 -0.0120161848285923 0.9660837611189619 103 94 61
0.1015801655105322 0.0127352318593235 0.9535757162383370 204 195 164
0.1709584703960555 -0.0022932996448700 0.9629717938979382 222 208 171
0.0633339891620459 -0.0167737340941120 0.9782503025583446 255 254 227
0.0804821492810194 -0.0143847622228720 0.9851652511556160 85 86 54
-0.0723055902425279 -0.0976506378641946 1.1058408200320426 132 126 100
-0.0132175959248669 -0.0853042442923951 1.0615102687708480 173 167 141
0.0381236810960120 -0.0626710191886013 1.0320700747392422 255 250 224
-0.0901575098401073 -0.0633173405982875 1.0435612662684701 243 238 208
0.1172950768807064 0.0507478855049027 0.9451695129594648 64 63 58
0.0215523348497070 -0.0829692079884520 1.0918652493843344 49 49 37
-0.0305172352954623 -0.4963274108768134 1.5220743149142335 65 67 64
-0.0219675057619449 0.0132369058608696 0.9958088690337846 48 44 43
-0.0114688859012701 -0.0315486839078628 1.0142394698806323 154 148 126
0.0278058979699618 -0.0519675696905824 1.0244628045386304 163 157 131
0.0525106751661861 -0.0350690712560415 1.0014155905123907 174 164 137
-0.0294052642029095 -0.0355134598790451 1.0478790273922765 144 138 114
0.1704872560074992 -0.0078164177079849 0.9727080481029819 159 144 111
-0.0448330003349744 -0.0735112631156775 1.0486314250228577 216 213 180
-0.0208943159272414 -0.0908686963591883 1.0706507089174655 93 91 70
-0.0244143958698468 -0.0913295423043816 1.0691442980085066 252 248 221
-0.0172060918909037 -0.0662120012267867 1.0392291754303336 244 241 210
0.1498267323534118 0.0216963176769007 0.9407119669569395 236 223 188
0.0438616243467151 -0.0688543280331806 1.0378139559667041 243 239 210
0.0205354779834204 -0.0304204366272794 0.9998774932090030 247 237 212
0.0481554910510123 -0.0299524009515421 0.9998810145748226 114 102 76
-0.0597471474333347 -0.0375525087329134 1.0277485405942550 142 129 97
0.0991265425249686 -0.0486118548701178 1.0132650933275964 218 211 185
0.0538327632466546 -0.0581651305384750 1.0299568787715361 76 71 51
-0.5412859131157693 0.0822061836517909 1.0376188002382052 52 57 51
-0.2164654522175223 -0.1055874406144272 1.1604164664331482 139 121 111
0.1393910025195567 0.0148839576016729 0.9422024675803320 98 83 62
-0.0843053854284845 -0.0148821960396916 1.0399957678681291 39 40 35
0.0628322717904285 -0.0712438292742539 1.0812143576959354 33 30 25
0.0864296945453327 -0.0012229905487530 0.9547675175155673 245 150 132
0.0452145584096015 0.1144813426236418 0.8884331411615604 60 52 50
-0.3350672004128757 -0.0349347881898163 1.1084913349689447 92 91 87
0.1413051958953595 -0.0322391892347077 0.9922160498046999 133 125 106
0.0003676557543780 -0.0767188102430535 1.0454735421761303 142 142 118
0.0307491002398164 -0.0493331369862831 1.0173088939723138 127 123 98
0.0582173237609511 -0.0181724222713390 0.9843084250802501 118 102 76
0.1490614447909163 0.0132333116008530 0.9498886390261819 249 236 202
0.0449550846970882 -0.0006829008476272 0.9812578786867681 60 48 24
-0.5525220203978288 0.0545425442554219 1.0693867925100202 51 45 45
-0.1198137344928667 -0.1061119694998639 1.0969264583362259 81 74 55
0.1583796597155225 0.0063471555159155 0.9605166038525694 211 198 163
-0.1452264313291960 -0.1191186009774028 1.1111647585169913 111 106 77
-0.2153874047338352 -0.3265196018503966 1.3964130329268822 80 76 75
0.1313983384389016 -0.0468201913242651 1.0410165836514842 36 37 32
0.0769627739653211 -0.4213202115997213 1.4555371893038085 11 13 10
-0.0239055766701306 -0.0653301067040727 1.0343799253923169 225 220 190
0.0348754272278690 0.2752370485004600 0.7333475549182620 37 36 34
0.0694572849059276 -0.2301840156055046 1.2772408569835825 75 70 67
0.1027826444145976 0.0141094755094747 0.9556890105886569 142 135 109
0.1678260419567639 -0.0117007348555222 0.9691969377496549 70 59 29
0.1412136803180178 0.0506996292360827 0.9233123404282527 221 214 196
-0.0300420029127504 -0.0827695919931112 1.0672105925416393 127 122 93
0.1045275549992924 -0.0395690763066976 0.9955481844078489 76 63 46
0.2260332724360159 0.1633417421595307 0.8387284319294651 88 83 79
-0.5256911094813971 0.2373713624968190 0.8436663969192262 110 104 106
0.2856088743222231 0.0185453691515253 0.9724215019051451 80 76 73
0.0138341335041192 -0.1405510224849317 1.1435748402603592 118 110 107
0.0464785589620167 -0.0599128457921210 1.0206231529095466 135 131 102
-0.1336596227361992 -0.0878120307531748 1.0759650200275113 89 81 62
-0.0983791726304618 -0.0919034458779046 1.0670015785710263 76 73 54
-0.1163549236594349 -0.1119149092137581 1.1014731073199704 116 108 85
-0.1155912267695363 -0.1660356822284134 1.2226390490392782 68 64 55
0.0554753625747429 -0.1485168736812517 1.1851636015332638 53 53 51
0.0178654423298655 0.0392137393097442 0.9735212926283260 116 105 103
0.1866919524500428 0.0489684095648495 0.9563716313133119 16 16 16
0.2750500273788842 0.0119781161948052 1.0152945954458683 86 88 83
0.0410570970544477 -0.0428560357157018 0.9921761366276458 129 121 98
-0.0701131678255175 -0.0846729616136630 1.0618895394806804 129 122 103
-0.0443684911054784 -0.0692617320138434 1.0533160067748948 214 211 180
-0.0293311036705068 -0.0868813655256605 1.0506327846069337 126 121 91
0.0746279700334503 -0.0672098175439465 1.0267829326108788 141 136 116
0.0438077083813827 -0.0310717872647905 1.0212044067974890 183 172 144
-0.0047104941502198 -0.0470032348509426 1.0117361079516665 174 167 138
-0.0082780871444418 -0.0428967440501293 1.0090890311539165 177 170 144
0.0259244300346226 -0.0242615086226583 0.9657962805523249 122 115 87
-0.1518860073800046 -0.0875184763230212 1.0720477774737494 172 116 89
0.0716219447244156 -0.0608650000468361 1.0381862871031151 171 171 147
-0.0483808816692939 -0.0984714328153234 1.0532804392958113 217 212 180
0.0567820264469863 -0.0459982134400829 1.0006268232356754 188 183 153
0.1376886094303856 -0.0188713455846881 0.9767732835381954 88 86 63
-0.1157174925428417 -0.0639220368637603 1.0647703429626452 106 99 71
-0.1157464389204762 -0.1240226215455111 1.0985108853790655 112 108 81
-0.1200043180426750 -0.0977078801237121 1.0799321833578133 96 90 66
-0.0264960954984591 -0.0775955220215243 1.0379843434152489 98 91 65
-0.0024342034401063 -0.0662929563148772 1.0248100090835341 87 83 54
-0.1193801900249665 -0.0724053251867853 1.0556662513900683 72 68 43
-0.0786036203935572 -0.1006714499713545 1.0952507742292421 108 107 76
0.0286199461360409 -0.0234175750170322 0.9864299390326631 87 80 54
-0.0663965052488957 -0.0760346275714396 1.0556044366910817 94 90 61
0.0558516619851834 -0.0285656459110719 1.0109020394759642 75 64 46
-0.0128671747662115 -0.0249490794174616 1.0167162957917573 86 79 53
0.1195926027896049 -0.0353043143690323 1.0047918719066504 87 93 91
0.1260777596436825 -0.0176258768235526 0.9763169895984853 75 71 46
0.1047237861949917 0.0055236283992026 0.9547466408733466 69 58 38
0.0976285874919266 0.0129589729397863 0.9529460784228876 86 75 47
0.1313049785488610 0.0005612559291796 0.9554517244592587 64 58 34
0.1194329581272943 0.0233274763802149 0.9389442258921550 153 142 110
-0.1303031949924033 -0.1059911172570039 1.0943613874353015 255 255 234
0.1131398178790685 -0.0127634528934730 0.9745462456948006 84 77 49
0.0887079916881465 0.1060144824316546 0.9174529289962834 35 30 27
0.1292298852467076 -0.0261451453332110 0.9869046123008804 87 76 54
0.0520034898426755 0.2577227916576290 0.7610480928728122 12 14 13
-0.0217712969553360 -0.0505979161711662 1.0303911290753840 91 90 62
0.1516375337745374 -0.0132731580994742 0.9713008896004024 94 86 63
-0.0829509963976629 -0.0677397521728934 1.0372053368910790 236 230 194
-0.0191833498747911 0.1145919434010641 0.8701268344135750 119 111 109
-0.1336692851933081 -0.1301114074167583 1.1201993208450181 162 157 128
-0.0651139525004736 -0.0592754315371095 1.0426531376063539 149 147 124
0.0021816788589061 -0.0572137130283281 1.0336105635367805 213 209 182
0.0615759879189280 -0.0101684572267753 0.9727783291216582 186 174 150
0.1744233128465098 -0.0029949491510464 0.9682052274836960 90 77 43
-0.0014267610395455 -0.0823662034047685 1.0533884426103848 171 165 139
-0.1242894016153531 -0.1360787248687294 1.1231511566404646 227 226 196
-0.1131815148855742 -0.0726281752614486 1.0561115370109799 251 249 224
0.1569333215002708 0.0137014404456840 0.9481891487296358 238 224 187
0.1393598194058842 0.0406579909304604 0.9269694964253151 69 59 32
0.0062871700108759 -0.0621328709124009 1.0392511074438751 135 128 99
-0.0422133350811213 -0.0608585800468887 1.0469200849108142 162 151 121
0.0009151291049639 -0.0879840927210812 1.0520910806982895 125 119 93
-0.1522779218171708 -0.0944755525142171 1.0849069937548537 137 84 66
0.0006986924831974 -0.0494704820415911 1.0171429411321895 125 119 95
-0.4885831753772803 0.2493079766887857 0.8147045580391311 71 70 66
0.0957260558091672 -0.0524294063664506 1.0131879498707770 97 87 60
0.0343355256079581 -0.0481978003762970 1.0223153502104547 45 35 8
0.0755030487124586 -0.0309694416219388 1.0033156644142416 92 76 51
0.1780564040351021 -0.0047018256029812 0.9674325621902691 77 64 30
-0.0393022552492119 -0.0542880973558810 1.0406900645678689 105 95 68
-0.5101425561551344 0.1228165233109901 0.9697943374515832 54 51 46
-0.1358871887398565 -0.1349056457603337 1.1276261061142343 207 202 173
0.1232836108017916 -0.1475011982976973 1.1903783247499748 52 56 55
0.0746208030371174 0.1153518157593038 0.9052106551671959 96 82 82
-0.2249078846785690 -0.2690644775877705 1.3320043773678663 75 77 72
0.1162508250692162 -0.0131624197588214 0.9614934968186950 193 188 159
0.0706112485898097 -0.0245982904225916 1.0083519159032612 104 91 74
0.1364790497410723 -0.0299026224065523 0.9881127422480428 86 85 57
0.1481852403349691 -0.0230548381389222 0.9907730136431755 48 41 25
-0.0874106211934668 -0.0750340756029370 1.0393664019190760 110 104 80
0.1013936280465335 -0.0459453124660706 1.0205767838966626 77 78 73
0.0808948173771961 -0.0522082496285276 1.0137152263057814 39 37 22
-0.4010422020171592 -0.3541285486591308 1.4569317638966681 85 91 89
-0.4704643918130860 0.2216797903410710 0.8530386744352723 145 137 134
-0.5946725242545995 0.3568534465098332 0.7487465548382500 63 61 62
0.1758046979280135 0.0205726491263594 0.9600605927467798 50 44 28
-0.0603213087001314 -0.0579430996919831 1.0264432947167004 156 152 125
-0.0108057628281646 -0.0791670037853011 1.0554836655785191 148 144 117
-0.0235083839349977 -0.0621807688505572 1.0352721260139914 86 86 52
-0.0012683232646634 -0.0608048276037222 1.0440638992613511 244 239 209
0.1383074054083970 0.0482437018532944 0.9186112727394793 81 73 62
-0.0624605338673256 0.3429581176183588 0.6762211132170765 172 165 159
0.0563908325944289 -0.0109340465381070 0.9755206282524320 255 247 223
0.1404487874334518 0.0275788189448916 0.9360256776776134 113 98 69
-0.6593196052246956 0.3597449484551453 0.8602753276317873 41 40 35
-0.0717830103250492 -0.0461867957360549 1.0589625667093061 128 128 104
0.1456429059797541 0.0446514108299124 0.9208023601522040 185 180 151
-0.0212613169105819 -0.0435749477286873 1.0414343207234453 155 145 120
0.0359649353890379 -0.0052897485261999 0.9785855983922385 152 136 110
0.0518768709671401 -0.0025636618391837 0.9682579044295722 111 97 68
-0.1289902641311534 -0.0888944809379450 1.0837786392929183 149 140 107
0.1313475567111871 0.0133781003058370 0.9554942609576903 89 72 46
-0.7142504856545019 0.3242436267808061 0.7976479732706031 53 52 50
-0.1064153439690149 -0.1248460667702473 1.1191515011019044 79 77 56
-0.1128388281779700 -0.0976184560680336 1.1047038626023942 96 91 72
-0.0431318417309136 -0.0666395046463050 1.0561313420672063 63 63 37
0.2141782494179158 0.0084537697861162 0.9841504029585099 87 84 65
0.1455983109707068 0.0095598093321541 0.9434486976478552 80 65 46
0.1305008605376528 0.0245699174472899 0.9410098361634841 85 73 47
0.2068543051223511 0.0161861703938322 0.9833466554675149 94 91 72
0.1694670462990969 0.0684536787759292 0.9305763454951997 11 11 9
-0.7423482877590976 0.3092002423778872 0.8113050422956938 36 32 29
-0.7031372895081145 0.3360726703630685 0.7747400901508888 25 27 24
-0.3366760784987646 -0.0098748602810749 1.0718940271866786 82 81 76
-0.0429092794092356 -0.0903839332315360 1.0710079917946485 109 109 81
0.0490726579564826 -0.0344531372174835 1.0014547624860508 255 255 227
0.0881052569413799 -0.0523055939021378 1.0185062517068004 205 195 170
0.1445125235678602 0.0459740768592844 0.9191308121640704 102 96 70
-0.0061862714543494 -0.0488317685759637 1.0257024211047534 139 134 105
-0.0650173712900153 -0.1113275049269847 1.0924869335728649 108 103 74
0.1149067705873953 -0.0048774681047098 0.9645167462750552 73 63 38
-0.1294002377518923 -0.1314369829024469 1.1362273150122966 102 96 70
-0.0202526549289199 -0.0908018528055829 1.0795073050322195 118 112 86
-0.0781328658360980 -0.0938539956203400 1.0728183778717775 97 93 68
0.1034032021015775 -0.0169451082259718 0.9748280176503796 103 99 62
-0.5863205034027311 0.0717756826222665 1.0361169162172736 133 130 125
0.1663926171659971 -0.0123460562450249 0.9688650567745293 91 85 53
0.1498726946177132 0.0264882506188693 0.9402488553335506 105 95 60
0.1682401405485473 0.1933282284797302 0.7977049178498592 37 37 37
-0.2269020993444981 -0.5878237233782859 1.6695417777898471 74 79 75
-0.2717234248630350 -0.1878228248544757 1.2497376578363177 70 70 68
-0.0261572475873017 0.0616530535337489 0.9553156407846747 73 69 66
0.0831605232820899 -0.0001618669429793 0.9612119413856967 255 177 156
-0.1147594773304832 -0.1203412876940910 1.1117532780209889 255 255 234
-0.0114127879351603 -0.0734541573516883 1.0594967233993433 109 105 80
0.0413563467198772 -0.0643738886904643 1.0385090356433397 186 176 149
0.0390063039920628 -0.0607493756393313 1.0349489062355215 164 160 131
0.1143083925447455 -0.0130012898765203 0.9643359104022694 145 138 112
-0.0184098427218677 -0.0938902274461533 1.0678069569954487 130 125 93
-0.1004177098359854 -0.0705716737645091 1.0566562737453740 94 90 61
-0.0217563770924609 -0.0688299480783583 1.0510470383067012 121 107 80
-0.0324035908358767 -0.0466809976888927 1.0266382582927795 255 250 221
0.0820460751693544 -0.0387990249004405 1.0079016699267764 126 115 85
-0.5500558784775464 0.0349859441144967 1.0982063348810425 156 151 147
-0.8870877573288001 0.3333576390054147 0.8598782343791573 134 124 122
0.1078296115176870 0.0106574678379694 0.9504196430385718 154 143 121
0.1062498549606431 -0.0377817270120195 1.0040475464609995 155 161 175
-0.1169694198987870 -0.0768011997223926 1.0598270071976819 87 86 65
-0.1497409522224163 -0.1385285831778312 1.1410439535928298 144 143 123
0.0261270979481290 -0.0517841050124620 1.0269470129774416 161 154 125
0.1500322181042956 0.0063039592825203 0.9575664466521008 118 103 70
0.1785141764492100 0.2009678744490855 0.8318276485478677 27 26 24
0.1401051419019302 0.0100294396685691 0.9721167781040505 83 69 42
-0.4877086367703372 0.1704705039550278 0.9229396567099145 133 128 125
-0.1279533529954025 -0.0942321200327942 1.0767799442595432 116 105 73
-0.0212994261949590 -0.0868259864841591 1.0676310735014856 255 254 229
0.2691920811594781 -0.0650892146931074 1.0705244657484432 49 45 42
0.1734772028580742 -0.0112412720133260 0.9726433498318134 167 153 118
0.1082051948689262 0.0196578294770750 0.9442499707559653 137 131 107
0.1621453814561665 -0.0013656473035986 0.9642039891242503 227 217 182
-0.1261065188157253 -0.1405010184446469 1.1263239576596353 140 133 104
0.0687295388260345 -0.0461658317891769 1.0118976825944823 142 131 109
-0.6618552827087160 0.3780130206862545 0.7076640905971266 93 86 80
0.0412279792045048 -0.0283164495124878 1.0003561782749335 146 130 105
-0.0197330292577850 -0.0755695441488189 1.0491860858246322 153 139 113
0.1648859735597402 -0.0043517627377113 0.9677919119480257 240 228 190
-0.7097668421665316 0.3677435236783566 0.7444993159511502 94 91 84
-0.6857321770856827 0.4087135776569391 0.7142525809211976 45 40 34
-0.6664669136968153 0.3906231269123640 0.7151163227965299 34 35 30
-0.7005418304769395 0.3843806309077661 0.7454721886627431 31 32 27
-0.0223694659046864 -0.0880949436723948 1.0496004584061591 104 106 82
0.0867285431499519 -0.0120740021237454 0.9699897499187567 164 189 150
-0.0138967370446024 -0.0928160670497035 1.0785377981622664 75 65 38
0.0161268172215810 -0.1058161306865969 1.1417695389615734 117 109 107
0.0397263178918953 -0.0598410534505516 1.0327121931822070 142 138 109
-0.1554378026326662 -0.0854580508499751 1.0814098345472871 255 251 224
-0.1414495235066545 -0.1030409902277782 1.1005566599849186 255 254 225
0.0094106596210411 -0.0245537062289338 0.9930189660359876 185 178 150
0.0571561793808492 -0.0368596732734417 1.0067555715737813 255 255 227
0.1063104481276276 -0.0064270596138037 0.9650895536762900 151 145 119
-0.4375698354596831 -0.2091104852831177 1.3176577492845554 240 237 232
-0.0246404113126970 -0.0910881049037852 1.0683084294602336 253 247 223
0.0890772473038556 -0.0082511280432807 0.9721694513712650 150 184 147
-0.1006281546003783 -0.0570891624634412 1.0467786842187585 127 122 90
-0.0975704994207097 -0.1166121530206691 1.1056642152756218 255 255 238
-0.1231546101325827 -0.0057749061590121 1.0551294404998608 141 134 126
0.0923040605961110 0.1060632523449736 0.9136185462140120 26 28 23
0.0909677763514451 -0.0786457618406801 1.1212306482402663 104 94 92
0.0799220243335667 -0.0011779791716794 0.9629624281422903 255 231 204
0.0860231699418036 0.0485785047898061 0.9398499904047127 31 29 30
-0.0521329026529934 -0.0727058936655681 1.0552168669745798 255 255 226
0.1027540930542988 0.0104509134212494 0.9568810884713081 168 157 137
0.1463338576774713 -0.0315791870653291 0.9836159836815334 158 150 127
0.1607489713704054 -0.0023648942572317 0.9616069771102200 99 90 57
0.1570543350941966 0.0089578367288004 0.9542140444109566 121 106 67
0.0656160719764845 -0.0162158897714118 0.9551166356434446 121 111 86
0.0812447079244058 -0.0425144540810634 1.0138548181663745 255 246 219
0.0944512954009531 -0.0148239233245972 0.9816311400430152 148 179 137
0.1137392329353404 -0.0153196898289965 0.9780304525587201 96 81 58
0.1153654394997898 0.0091184361552982 0.9528973509139830 81 70 48
-0.1051443194973782 -0.0833850277379303 1.0702024740491340 140 135 106
-0.0804505739640673 -0.0730006086235730 1.0534850513211920 117 112 82
-0.0178770637755635 -0.0876157710313452 1.0659744942332912 255 255 232
0.1411509449742244 0.0553707870584521 0.9348007021042820 58 56 41
0.2913439688001064 0.1231777867924129 0.8223273505034435 34 33 29
0.0285669802121050 0.1089406325120151 0.9281003588271134 53 52 50
0.2820906344080745 0.0154690990400774 0.9976413742407327 91 86 83
-0.1337293594425870 -0.1205192109067680 1.1274251854546942 255 255 232
0.0304749807983790 -0.0288924633520354 1.0204530677720540 127 116 88
-0.0816098660227008 -0.0531282304640796 1.0531831942681760 255 255 239
-0.1116544857893431 -0.1404223920761682 1.0859935407119523 155 150 130
-0.0929145210001603 -0.0978633063979050 1.0716556751267694 75 73 50
-0.0499222396316047 -0.0817000277114441 1.0572217597769273 251 246 217
0.1539812885694548 0.2146253370767663 0.8381544451732679 15 19 18
-0.0614322571191434 -0.0799201792736315 1.0565695236754269 77 75 54
0.0465712142789557 -0.0144933677171882 0.9799264870584480 58 51 35
-0.0901288160344289 -0.0865718466876021 1.0524166456588890 141 136 107
-0.0449508072313450 -0.1166558765828936 1.1283832174359423 21 20 16
-0.0100999970425214 -0.0798698111247699 1.0641825314403743 164 160 133
0.0365920042331566 -0.0226392027809473 0.9849889735479929 125 118 100
-0.0009610764592640 -0.0893623012064474 1.0477525029024608 129 125 98
0.1636111068021221 0.0343094694461464 0.9012342564185164 193 185 166
0.0012153919131746 -0.0919224312727584 1.0526406589727708 133 127 103
0.1918932635800366 -0.0099044057758109 0.9387406410628647 90 79 49
-0.1343893388781961 -0.1397561963335275 1.1537095529167185 78 73 53
-0.1744203785860912 -0.0133874598135281 1.0875450710195214 96 91 85
0.1121391450267729 -0.0469186157129880 0.9967429253524516 49 52 43
0.0566475624466201 -0.0128527354724578 1.0287575742529589 68 57 37
0.2768995779777215 -0.1521155427245900 1.1850978915454233 44 43 41
0.0220795424607366 -0.0851093031499982 1.0615578343094954 122 115 86
0.0083662372287450 -0.0738745137926713 1.0449931358374740 58 60 46
-0.7758636386112560 0.3087019637698149 0.7849802227593068 128 123 120
0.0463772166790930 -0.0450880504275040 1.0210589887122552 153 144 115
0.0959985802831301 -0.0509045039558255 1.0235693862656119 85 74 52
-0.0584873373486354 -0.0016991896899101 -0.1216143487424247 0 255 0
-0.0318142345214521 -0.0023304169890056 -0.1178529654158531 0 255 0
-0.0222963969420423 -0.0029510907351607 -0.1199727931894273 0 255 0
-0.0094364411220321 -0.0023324165266222 -0.1269430065836780 0 255 0
-0.0010648394224757 -0.0039280659578647 -0.1309108291687716 0 255 0
0.0119674757917804 -0.0036992863031584 -0.1318323596594006 0 255 0
0.0184027270003683 -0.0010289304475935 -0.1350920040642849 0 255 0
0.0342950534096248 0.0018673623677584 -0.1386950123694920 0 255 0
0.0500514623172952 -0.0032102510897682 -0.1323561083055277 0 255 0
0.0656431980663491 -0.0115704095361019 -0.1286159339696944 0 255 0
0.0788016841799451 -0.0151600238574691 -0.1343226073824686 0 255 0
0.0978036285136961 -0.0163810338829220 -0.1284803992270474 0 255 0
