ply
format ascii 1.0
element vertex 700
property float x
property float y
property float z
property float nx
property float ny
property float nz
property uchar diffuse_red
property uchar diffuse_green
property uchar diffuse_blue
end_header
-0.346515 -0.0735638 1.34313 0.242926 -0.817344 -0.522433 170 169 185
-0.33157 -0.0726541 1.34307 0.0745269 -0.874721 -0.478863 185 194 215
-0.309067 -0.0731468 1.34064 -0.00245153 -0.942942 -0.332947 190 199 215
-0.305101 -0.0723804 1.34302 -0.171468 -0.910164 -0.377096 192 199 215
-0.299842 -0.0714526 1.34176 0.78917 -0.575492 -0.214522 224 233 246
-0.299518 -0.0711386 1.349 0.948756 -0.158171 -0.273578 202 207 223
-0.29878 -0.0694337 1.35217 0.910368 -0.341551 -0.233608 210 218 234
-0.296739 -0.0696717 1.35106 0.899641 -0.33096 -0.284801 213 221 237
-0.297799 -0.0679548 1.36163 0.553716 -0.764337 -0.330434 188 185 202
-0.293121 -0.0662231 1.36848 0.228779 -0.934344 -0.273241 180 168 176
-0.290809 -0.0662505 1.36966 0.181073 -0.941871 -0.283005 176 159 161
-0.204711 -0.0721375 1.32675 -0.414789 -0.738112 -0.53211 108 111 114
-0.203896 -0.0725901 1.32008 -0.44516 -0.779314 -0.441025 104 110 113
-0.0414027 -0.11523 1.09451 -0.548413 -0.741728 -0.386113 88 97 88
0.252784 -0.0948421 1.13245 -0.389824 -0.836992 -0.384034 120 60 31
-0.370575 -0.0738645 1.34046 0.133441 -0.898406 -0.418401 162 143 151
-0.364811 -0.0742877 1.33916 0.150589 -0.895954 -0.417838 169 156 172
-0.359201 -0.0734764 1.34085 -0.409014 -0.692531 -0.59423 175 169 186
-0.34568 -0.0732562 1.33558 0.24972 -0.531593 -0.809351 195 210 229
-0.33992 -0.0734489 1.33766 0.192743 -0.739586 -0.644875 190 202 223
-0.338386 -0.0734392 1.33954 0.28144 -0.370018 -0.885369 183 191 212
-0.338343 -0.0734848 1.33851 0.312391 -0.506888 -0.803416 185 195 215
-0.335882 -0.0728303 1.33691 0.150884 -0.82115 -0.550406 199 214 235
-0.335754 -0.0727712 1.33639 0.110644 -0.82322 -0.556836 198 212 234
-0.336409 -0.0729924 1.33906 0.357066 -0.456698 -0.814819 193 205 226
-0.336809 -0.0725151 1.33904 0.297585 -0.696697 -0.65273 197 210 232
-0.336335 -0.071864 1.34152 0.185443 -0.593483 -0.783192 196 209 230
-0.335754 -0.0727712 1.33639 0.110644 -0.82322 -0.556836 198 212 234
-0.336947 -0.0724954 1.33955 0.337626 -0.587609 -0.73534 196 209 230
-0.333557 -0.0729705 1.33553 0.120166 -0.82331 -0.554725 201 216 238
-0.335351 -0.072009 1.34087 0.191605 -0.571612 -0.797839 196 210 231
-0.334684 -0.0722236 1.3384 0.0827756 -0.821151 -0.564676 200 215 237
-0.333584 -0.0730472 1.33564 0.108513 -0.822489 -0.558334 200 215 237
-0.3329 -0.0727176 1.33922 0.148802 -0.532211 -0.833432 196 209 230
-0.334098 -0.0725861 1.34075 0.0114465 -0.814842 -0.579569 194 206 227
-0.332514 -0.0724268 1.34049 0.118627 -0.681049 -0.722565 196 208 229
-0.330437 -0.072692 1.34021 0.197038 -0.821526 -0.535044 194 207 228
-0.312368 -0.0714743 1.3384 -0.325195 -0.755032 -0.569364 204 217 237
-0.313155 -0.0708173 1.34146 -0.440585 -0.759093 -0.479231 203 216 236
-0.310509 -0.0718173 1.33795 -0.407892 -0.693553 -0.593808 202 215 234
-0.31048 -0.0718594 1.33783 -0.415089 -0.70482 -0.575265 202 215 234
-0.308607 -0.0717209 1.3364 -0.418596 -0.686671 -0.594357 204 217 235
-0.306367 -0.0723463 1.33816 -0.16419 -0.912169 -0.375486 199 210 227
-0.306367 -0.0723463 1.33816 -0.16419 -0.912169 -0.375486 199 210 227
-0.299662 -0.0706954 1.34056 0.902161 -0.334602 -0.272299 234 244 252
-0.2998 -0.0688375 1.34958 0.883901 -0.411836 -0.22161 227 238 249
-0.29648 -0.067013 1.35757 0.804788 -0.0051621 -0.593541 214 224 242
-0.296175 -0.0647611 1.36728 0.665354 -0.715071 -0.214425 199 203 222
-0.293112 -0.0654836 1.36588 0.230842 -0.934266 -0.271772 194 198 214
-0.288589 -0.0669879 1.35892 0.0856836 -0.744877 -0.661677 200 207 226
-0.203849 -0.071426 1.31756 -0.441414 -0.78885 -0.427633 100 107 110
-0.364944 -0.0735828 1.33676 0.182867 -0.900196 -0.39523 180 180 201
-0.35848 -0.0731468 1.33696 -0.322421 -0.779343 -0.53728 188 196 216
-0.345322 -0.0723975 1.3331 0.299132 -0.631474 -0.715374 204 221 241
-0.343643 -0.0730319 1.33333 0.27933 -0.54094 -0.793322 201 218 238
-0.311302 -0.07096 1.3324 -0.323346 -0.756402 -0.568598 207 225 244
-0.299931 -0.071645 1.33172 0.888811 -0.376931 -0.260651 235 249 253
-0.298469 -0.0682515 1.34333 0.942088 -0.225676 -0.248074 241 253 254
-0.297038 -0.0678213 1.34911 0.921253 0.0463166 -0.386197 236 248 253
-0.296422 -0.0657294 1.35409 0.92617 0.0280172 -0.376065 231 244 252
-0.296733 -0.0653986 1.35564 0.946398 -0.183435 -0.265861 230 243 252
-0.295691 -0.0647528 1.35745 0.882836 -0.412423 -0.224739 223 236 250
-0.290801 -0.0645751 1.35821 -0.586662 0.167588 -0.792302 205 219 238
-0.291109 -0.0645652 1.35851 -0.61741 0.12403 -0.776802 206 220 239
-0.291109 -0.0645652 1.35851 -0.61741 0.12403 -0.776802 206 220 239
-0.287903 -0.0655476 1.35217 -0.5961 0.0597126 -0.800687 191 205 226
-0.289267 -0.0658444 1.35727 -0.104738 -0.0015462 -0.994499 203 214 232
-0.287903 -0.0655476 1.35217 -0.5961 0.0597126 -0.800687 191 205 226
-0.287894 -0.0655437 1.3521 -0.59031 0.0615402 -0.804827 191 205 226
-0.289259 -0.0658322 1.35718 -0.0680216 -0.00264543 -0.99768 203 214 232
-0.289267 -0.0658444 1.35727 -0.104738 -0.0015462 -0.994499 203 214 232
-0.289267 -0.0658444 1.35727 -0.104738 -0.0015462 -0.994499 203 214 232
-0.205945 -0.0698743 1.31687 -0.441478 -0.788834 -0.427596 96 102 102
0.0293965 -0.107566 1.10715 0.418417 -0.845699 -0.33124 39 40 39
-0.40817 -0.0876212 1.27538 -0.344679 0.328213 -0.879473 125 82 69
-0.35926 -0.0726385 1.32819 0.702362 -0.575598 -0.418777 200 222 240
-0.313858 -0.0708828 1.32815 -0.189987 -0.697154 -0.691289 211 230 250
-0.311659 -0.0709349 1.3255 -0.28525 -0.714486 -0.63886 212 232 251
-0.300063 -0.0699864 1.3294 0.887385 -0.36462 -0.282135 240 254 255
-0.297619 -0.066306 1.3435 0.922619 -0.272596 -0.272883 236 250 255
-0.29639 -0.0661073 1.34966 0.852382 -0.240128 -0.464526 236 248 253
-0.295742 -0.0638272 1.35418 0.863939 -0.335996 -0.375122 225 238 250
-0.289129 -0.0648833 1.35172 -0.621594 0.116673 -0.774602 187 201 223
-0.288388 -0.0650955 1.35032 -0.438734 0.318593 -0.840245 181 195 216
-0.288404 -0.0644383 1.35148 -0.35666 0.381911 -0.852606 176 190 212
-0.289199 -0.0644569 1.35234 -0.665389 0.0893801 -0.741127 184 198 219
-0.287104 -0.0601238 1.36958 0.42334 -0.297242 -0.855821 180 193 213
-0.278377 -0.0629911 1.35793 -0.28837 0.427373 -0.856852 157 166 184
-0.27454 -0.0626923 1.36082 -0.173416 0.482189 -0.858732 162 164 179
-0.266458 -0.0611531 1.36128 0.781578 -0.545281 -0.302991 142 152 157
0.0335998 -0.104904 1.11295 0.759277 -0.375092 -0.531794 10 10 10
0.0350617 -0.103975 1.11505 0.632407 -0.621083 -0.462944 10 10 10
-0.297679 -0.0677689 1.33441 0.875421 -0.431658 -0.217506 238 250 255
-0.292903 -0.0647337 1.34542 0.751385 -0.207663 -0.626336 190 201 222
-0.275475 -0.0631579 1.3518 -0.0882125 0.442688 -0.892326 128 137 153
-0.276768 -0.0614922 1.3545 -0.0462235 0.479561 -0.87629 121 133 147
-0.271952 -0.0632201 1.35128 -0.0747937 0.512112 -0.855656 127 134 146
-0.264648 -0.0593604 1.3601 0.85417 -0.368725 -0.366653 118 125 130
-0.264095 -0.0601985 1.3575 0.812042 -0.381065 -0.442014 115 123 128
-0.0493343 -0.109596 1.09917 -0.019456 -0.368295 -0.929506 59 65 61
0.0274854 -0.106468 1.10129 0.112922 -0.882569 -0.456422 42 42 42
0.244663 -0.0898748 1.12695 -0.857348 -0.448707 -0.252225 87 94 81
0.250592 -0.0908879 1.12247 -0.782348 -0.578086 -0.231837 91 93 81
0.268421 -0.0916501 1.11586 -0.808616 0.1325 -0.573222 114 87 68
0.270316 -0.0915827 1.11479 -0.643397 -0.734636 -0.215291 111 80 64
0.273804 -0.0930762 1.10915 -0.000654459 -0.954066 -0.299597 119 79 63
0.290007 -0.0942918 1.09911 -0.818903 -0.536081 -0.204978 119 61 29
-0.381994 -0.0717902 1.322 0.214967 -0.667923 -0.712509 192 208 228
-0.352643 -0.0705526 1.32345 0.0699672 -0.5403 -0.838559 215 238 253
-0.306107 -0.0732955 1.30133 0.905403 -0.211671 -0.368023 213 235 252
-0.306082 -0.071557 1.31053 0.743818 -0.457811 -0.486974 213 235 249
-0.304028 -0.0719746 1.30997 0.728222 -0.655704 -0.199362 222 241 252
-0.304721 -0.0712465 1.31312 0.834064 -0.480221 -0.271524 221 240 252
-0.305146 -0.0708246 1.31362 0.831195 -0.517772 -0.202553 220 240 252
-0.298082 -0.0668427 1.32824 0.929247 -0.24467 -0.276834 212 226 241
-0.297596 -0.0659863 1.33211 0.879961 -0.418738 -0.224338 210 224 241
-0.289772 -0.0627265 1.34697 0.303139 0.505294 -0.807951 141 152 170
-0.275106 -0.0610681 1.35242 -0.105171 0.50156 -0.858706 109 120 132
-0.0714679 -0.107838 1.10649 -0.727542 -0.0189115 -0.685803 114 124 116
-0.066572 -0.107352 1.10563 -0.687711 0.135077 -0.713308 99 111 102
-0.0508336 -0.108943 1.09664 -0.460186 -0.321388 -0.82761 47 53 50
-0.04463 -0.108516 1.09582 -0.328584 -0.882052 -0.337663 34 37 34
-0.0446376 -0.108519 1.09579 -0.355378 -0.867377 -0.348372 34 37 34
-0.0360196 -0.109301 1.09335 -0.724573 0.107599 -0.680747 18 20 18
0.0108838 -0.103548 1.1112 -0.68327 -0.618466 -0.388127 27 27 26
0.025961 -0.104939 1.09853 0.510107 -0.731077 -0.45312 58 59 58
0.0261127 -0.10485 1.09963 0.703734 -0.529588 -0.473597 58 59 57
0.0259567 -0.104959 1.09848 0.484319 -0.75248 -0.446327 58 59 58
0.0274703 -0.104736 1.10051 0.804311 -0.34772 -0.481845 26 26 26
0.273857 -0.0923388 1.10734 0.0459288 -0.948051 -0.314786 123 98 81
-0.418526 -0.0817327 1.28247 -0.484128 0.18146 -0.855975 127 79 64
-0.386104 -0.0714701 1.32177 0.161942 -0.824369 -0.542393 190 203 225
-0.383256 -0.0714345 1.31755 0.178102 -0.825513 -0.535545 199 215 238
-0.38043 -0.071549 1.31577 -0.0113795 -0.655634 -0.754993 204 222 242
-0.342791 -0.0720166 1.31039 0.955815 -0.200566 -0.214921 217 242 254
-0.340989 -0.0695015 1.3209 0.951292 -0.22131 -0.214628 217 241 253
-0.305566 -0.0733678 1.29489 0.923395 -0.190881 -0.333027 215 238 252
-0.296493 -0.0659697 1.3242 0.93707 -0.199098 -0.286809 168 183 204
-0.290852 -0.0710361 1.30261 0.915557 -0.331325 -0.227988 138 151 171
-0.28649 -0.0650019 1.33018 0.931589 -0.269062 -0.244434 120 126 141
-0.26868 -0.0620176 1.33799 0.823865 0.22411 -0.520597 93 102 106
-0.0706033 -0.106516 1.10606 -0.542578 -0.180008 -0.820491 106 117 108
-0.0680708 -0.106316 1.10514 -0.781092 -0.0300621 -0.623692 102 113 105
-0.0649056 -0.106786 1.10311 -0.514178 0.0124616 -0.857593 75 86 78
-0.060088 -0.107735 1.10074 -0.400344 0.340146 -0.850897 74 84 77
-0.0534394 -0.105658 1.10402 -0.334353 0.408984 -0.849082 59 66 63
-0.0473686 -0.108133 1.09515 -0.366613 -0.0495181 -0.929055 31 33 31
-0.0460211 -0.108131 1.09462 -0.428652 -0.677799 -0.597365 31 33 31
-0.0445894 -0.10803 1.09481 -0.292383 -0.407494 -0.865137 30 32 30
-0.0425744 -0.108196 1.09377 -0.679139 0.207539 -0.704059 23 23 22
0.0106868 -0.102101 1.10963 -0.688363 -0.615238 -0.384237 32 34 33
0.0136163 -0.102858 1.10319 0.647871 -0.591545 -0.479935 33 34 33
0.0307366 -0.103161 1.10386 0.608948 -0.704698 -0.364119 8 8 8
0.249485 -0.0903604 1.11572 -0.433227 -0.828521 -0.354778 77 81 68
0.26789 -0.0906262 1.11089 -0.885342 -0.39866 -0.239247 101 102 87
0.288302 -0.093141 1.09298 -0.150873 -0.893811 -0.422303 125 91 68
0.291322 -0.0927417 1.09377 -0.8187 -0.486597 -0.304884 124 76 50
-0.391609 -0.0710937 1.31388 0.0460057 -0.814594 -0.578204 192 206 227
-0.389198 -0.0715119 1.31243 0.133809 -0.823093 -0.551918 197 213 233
-0.384167 -0.0718365 1.31326 0.428835 -0.619766 -0.65726 200 216 239
-0.342443 -0.0678806 1.32349 0.857393 -0.477822 -0.191217 218 241 254
-0.303923 -0.0692842 1.30473 0.887548 -0.376712 -0.26523 231 252 254
-0.301229 -0.0689658 1.30999 0.905534 -0.330581 -0.265939 236 254 254
-0.299908 -0.0679202 1.31238 0.861817 -0.431222 -0.267057 225 242 252
-0.299554 -0.0662306 1.31805 0.881229 -0.386732 -0.271796 213 228 246
-0.289714 -0.0696475 1.30137 0.895217 -0.310871 -0.31929 118 129 146
-0.0661511 -0.106282 1.10322 -0.730335 0.0724784 -0.679233 83 94 86
-0.0670524 -0.105321 1.1038 -0.813161 -0.13863 -0.565288 89 99 91
-0.0654291 -0.105294 1.10354 -0.76945 -0.322514 -0.551299 68 78 70
-0.0445204 -0.106777 1.09462 -0.346694 0.268117 -0.898842 23 24 23
-0.0429913 -0.106817 1.09386 -0.495038 0.390142 -0.776355 17 18 17
-0.0431897 -0.10662 1.09451 -0.637247 0.207976 -0.742067 19 21 19
0.0161474 -0.101191 1.10418 0.713036 -0.509566 -0.481583 43 45 43
0.0152017 -0.102853 1.0973 0.389419 -0.867886 -0.308426 44 46 44
0.0288233 -0.100883 1.10316 0.691344 -0.547758 -0.471174 11 12 11
-0.3658 -0.0678671 1.31487 0.947421 -0.25579 -0.192262 218 243 254
-0.299015 -0.066209 1.30966 0.947012 -0.185302 -0.262359 189 206 228
-0.296936 -0.0632806 1.32189 0.915233 -0.234126 -0.327924 140 151 172
-0.195261 -0.072383 1.26304 0.728305 -0.639161 -0.247072 89 94 90
-0.19278 -0.0712579 1.26745 0.806921 -0.530742 -0.259214 85 92 87
-0.0647952 -0.104375 1.10252 -0.732113 -0.411413 -0.542909 61 69 63
-0.06168 -0.104524 1.09963 -0.392624 0.0172235 -0.919538 45 51 48
-0.059274 -0.10417 1.10156 -0.371015 0.389628 -0.842934 48 53 51
-0.0548851 -0.103798 1.1045 -0.0213506 -0.873981 -0.485491 40 46 44
-0.0535799 -0.103509 1.10516 -0.0490132 -0.871756 -0.487482 40 46 44
-0.0496677 -0.105111 1.09767 -0.0955015 0.536018 -0.838787 23 23 23
-0.0480634 -0.103809 1.10015 -0.0719472 0.473836 -0.877669 19 20 20
-0.046067 -0.104716 1.09506 0.495596 0.431425 -0.753828 16 17 16
0.0138475 -0.102172 1.09518 0.0433097 -0.876314 -0.47979 44 44 42
0.015201 -0.102057 1.09552 0.380835 -0.870565 -0.311577 45 46 44
0.0151991 -0.102012 1.0958 0.452517 -0.834593 -0.31414 45 46 44
0.0162981 -0.100506 1.10549 0.650302 -0.588013 -0.480987 49 49 48
0.0179245 -0.105205 1.08232 0.84684 -0.308947 -0.432914 49 49 47
0.0252012 -0.102763 1.09323 0.766246 -0.508592 -0.392685 21 22 21
0.0270859 -0.100752 1.0983 0.674091 -0.643485 -0.362668 9 10 9
0.199325 -0.0797677 1.16114 -0.823484 -0.492815 -0.281081 75 82 76
0.266243 -0.0890462 1.10762 -0.897046 -0.358253 -0.258774 88 95 81
0.267506 -0.089497 1.10421 -0.764118 -0.608773 -0.213352 90 97 84
0.268018 -0.0886131 1.10898 -0.460456 -0.539785 -0.704707 96 104 90
0.27091 -0.0887072 1.10635 -0.733141 -0.591938 -0.334834 91 97 84
-0.422191 -0.0789726 1.27336 0.963867 -0.141219 -0.22587 128 79 70
-0.376191 -0.0699052 1.30652 0.893717 -0.417105 -0.16521 219 242 254
-0.376331 -0.0687504 1.30995 0.945591 -0.269967 -0.181593 218 242 254
-0.198184 -0.0733967 1.25453 0.871562 -0.393621 -0.292304 85 95 90
-0.196784 -0.0717804 1.2603 0.806635 -0.485553 -0.337014 82 91 86
-0.195415 -0.0710864 1.26208 -0.029692 -0.89201 -0.451039 79 87 82
-0.193061 -0.0719597 1.2579 0.722332 -0.603641 -0.337423 77 85 80
-0.193596 -0.0716416 1.26289 0.629517 -0.693253 -0.350868 84 90 86
-0.191466 -0.0704254 1.26978 0.810232 -0.525134 -0.260305 81 87 82
-0.191466 -0.0704254 1.26978 0.810232 -0.525134 -0.260305 81 87 82
-0.0843574 -0.101881 1.11195 0.851752 0.0226895 -0.523454 103 116 109
-0.0814355 -0.102691 1.10952 -0.741607 0.0370435 -0.669811 112 125 117
-0.0732475 -0.101841 1.11019 -0.689638 -0.137497 -0.710981 99 108 100
-0.0711898 -0.102458 1.10785 -0.694124 -0.110687 -0.711295 77 86 80
-0.0677129 -0.103098 1.10243 -0.744552 -0.471105 -0.472972 60 67 60
-0.0593007 -0.103368 1.10309 -0.364948 0.392654 -0.844178 45 51 49
-0.0576925 -0.103149 1.10251 -0.363987 0.39259 -0.844623 35 39 38
-0.056346 -0.102077 1.10366 -0.384666 0.367125 -0.846907 30 33 33
-0.0556004 -0.102296 1.10461 0.113912 -0.319159 -0.94083 30 34 34
-0.0522136 -0.102114 1.10273 -0.353725 0.109007 -0.928976 24 27 26
-0.0508461 -0.102182 1.10183 -0.21632 -0.0497907 -0.975052 20 23 22
-0.050716 -0.102098 1.10217 -0.13465 0.415318 -0.899656 20 22 21
-0.0488777 -0.102495 1.10089 -0.0642039 0.470549 -0.880035 17 19 18
-0.0446361 -0.1026 1.0997 -0.589524 0.251748 -0.767518 15 16 15
0.0152112 -0.102656 1.09054 0.362226 -0.789004 -0.496251 53 55 52
0.0214612 -0.103464 1.08695 0.622915 -0.701119 -0.346999 81 81 81
0.0279811 -0.0998001 1.09956 0.800031 -0.437529 -0.41051 9 9 9
0.0279811 -0.0998001 1.09956 0.800031 -0.437529 -0.41051 9 9 9
0.266593 -0.0851559 1.1137 -0.901609 -0.355511 -0.2464 69 77 64
0.266035 -0.0876701 1.10417 -0.764014 -0.608916 -0.213318 63 69 58
0.265863 -0.0878212 1.10502 -0.819375 -0.526488 -0.226793 63 70 58
0.26713 -0.0882909 1.10229 -0.764107 -0.608797 -0.213321 63 69 59
0.267309 -0.0880316 1.10405 -0.759387 -0.615 -0.212381 69 76 65
0.268833 -0.0882318 1.10322 -0.844867 -0.480479 -0.235246 72 78 67
0.271141 -0.0888991 1.1006 -0.886024 -0.40058 -0.233447 83 89 79
0.273283 -0.0889527 1.09828 -0.753354 -0.623072 -0.210332 78 82 73
0.272774 -0.0895525 1.09615 -0.861071 -0.456739 -0.223487 76 80 71
-0.377036 -0.0667837 1.30866 0.956039 -0.193569 -0.220273 219 244 254
-0.375501 -0.0663128 1.31378 0.925509 -0.334115 -0.178325 219 243 253
-0.306029 -0.0690358 1.29023 0.875558 -0.398291 -0.273428 224 247 254
-0.30113 -0.0648754 1.30755 0.945429 -0.18222 -0.270112 205 223 242
-0.299663 -0.064347 1.30872 0.931064 -0.146322 -0.334229 169 186 208
-0.298437 -0.0632242 1.30944 0.94872 -0.182468 -0.258138 131 147 167
-0.298531 -0.0631637 1.31041 0.94246 -0.194233 -0.272107 133 149 169
-0.269289 -0.0520811 1.35075 0.856256 -0.113291 -0.503974 81 92 90
-0.197266 -0.0711856 1.25896 0.761497 -0.555368 -0.334198 84 92 87
-0.19185 -0.070111 1.26275 0.615487 -0.748167 -0.247835 77 84 78
-0.191072 -0.0691201 1.26786 0.61937 -0.74611 -0.244338 78 85 78
-0.191072 -0.0691201 1.26786 0.61937 -0.74611 -0.244338 78 85 78
-0.0917334 -0.0998074 1.11499 -0.547217 -0.335158 -0.766956 114 126 120
-0.0866096 -0.100466 1.11126 -0.714746 -0.513189 -0.475157 104 116 107
-0.0851388 -0.100798 1.10947 -0.693957 -0.553217 -0.460842 101 112 104
-0.083684 -0.101099 1.1078 -0.457622 0.18001 -0.870735 99 110 102
-0.0850768 -0.100907 1.11136 -0.11231 -0.285294 -0.951837 100 113 104
-0.0850746 -0.100922 1.11133 -0.126392 -0.278115 -0.952196 100 113 104
-0.0831531 -0.101123 1.11 -0.595042 0.225668 -0.771362 108 120 112
-0.0806044 -0.10013 1.11088 -0.759915 -0.112062 -0.640291 88 100 90
-0.0729533 -0.101003 1.10594 -0.383884 -0.126895 -0.914621 66 71 67
-0.0659758 -0.103292 1.09488 -0.612067 -0.664811 -0.428252 36 39 37
-0.0599027 -0.101884 1.10405 -0.364059 0.392209 -0.844768 37 42 39
-0.0582104 -0.101859 1.10336 -0.364074 0.392284 -0.844727 29 33 31
-0.056808 -0.101331 1.10361 0.130454 0.336927 -0.932449 25 28 28
-0.0561056 -0.100914 1.1027 0.548578 0.0827651 -0.831993 21 24 23
-0.0514135 -0.101801 1.10109 -0.331939 -0.134693 -0.933635 21 23 22
-0.049309 -0.101844 1.10186 -0.296865 0.490097 -0.819559 15 16 15
0.0187906 -0.102811 1.08219 0.847341 -0.302034 -0.436793 74 75 72
0.0229028 -0.102093 1.08689 0.559317 -0.75914 -0.332973 24 24 24
0.0232522 -0.101238 1.09044 0.805306 -0.337998 -0.487071 25 25 25
0.266761 -0.0870789 1.10042 -0.763286 -0.610246 -0.212122 55 59 51
0.268463 -0.087014 1.10135 -0.840248 -0.489379 -0.233435 58 62 53
0.269528 -0.0877559 1.09942 -0.846085 -0.473645 -0.244542 58 62 53
0.270585 -0.0884912 1.0975 -0.838481 -0.496547 -0.224477 66 71 62
0.281308 -0.0846357 1.10961 0.704984 -0.383995 -0.596277 94 97 87
-0.302529 -0.0640723 1.30252 0.951046 -0.118581 -0.285393 214 233 249
-0.302382 -0.064101 1.30211 0.95025 -0.159241 -0.267708 213 231 248
-0.30156 -0.0627492 1.30483 0.94993 -0.138423 -0.280128 183 200 221
-0.299795 -0.0632271 1.3045 0.928437 -0.190255 -0.319073 148 164 184
-0.300278 -0.0633186 1.30704 0.892484 -0.361419 -0.269906 163 180 201
-0.299707 -0.0633054 1.30546 0.934587 -0.214922 -0.283471 148 164 185
-0.279241 -0.0702057 1.27402 0.912567 -0.338127 -0.22998 91 98 106
-0.198631 -0.0721671 1.25139 0.701154 -0.506794 -0.50154 85 93 88
-0.198437 -0.0717587 1.25259 0.875214 -0.358403 -0.324882 84 92 87
-0.196915 -0.0715617 1.25327 0.808192 -0.393698 -0.437981 78 87 81
-0.195174 -0.0706447 1.25532 0.900961 -0.32377 -0.288865 74 82 75
-0.173487 -0.0749769 1.22845 0.876242 -0.351227 -0.329909 95 102 101
-0.172714 -0.0748286 1.22925 0.833145 -0.440274 -0.334707 103 110 109
-0.171951 -0.0752286 1.22887 0.447922 -0.579516 -0.680829 105 112 112
-0.124165 -0.0805908 1.19713 0.742893 -0.256531 -0.618306 180 189 211
-0.123845 -0.0800656 1.19771 0.902195 -0.179552 -0.39218 180 189 210
-0.123834 -0.0801267 1.20154 0.743049 -0.470621 -0.475809 151 159 175
-0.124327 -0.07857 1.2094 0.727996 -0.161862 -0.6662 115 122 132
-0.097379 -0.0988876 1.11716 -0.55309 0.25622 -0.792744 114 125 118
-0.0912362 -0.0984071 1.11407 -0.537849 -0.348054 -0.76784 95 107 100
-0.0899819 -0.0991416 1.11414 -0.172764 -0.547371 -0.818864 98 111 103
-0.088727 -0.0986671 1.11343 -0.335671 -0.461929 -0.820943 107 120 111
-0.0751221 -0.0999539 1.10581 -0.140429 -0.873993 -0.465206 71 77 72
-0.0753815 -0.0998666 1.1076 -0.662525 -0.523275 -0.535951 71 78 73
-0.0722577 -0.100178 1.10451 -0.671735 0.0553182 -0.738723 47 52 48
-0.0659873 -0.101918 1.09418 -0.523564 -0.755804 -0.393243 23 26 24
-0.0574921 -0.100663 1.10301 -0.360924 -0.00991514 -0.932542 22 25 24
-0.0580001 -0.100429 1.10093 -0.55296 -0.160038 -0.817694 21 23 22
-0.0422742 -0.111147 1.05145 -0.434837 -0.497097 -0.750873 29 31 29
0.0240287 -0.0993763 1.09146 0.794674 -0.359852 -0.488876 12 12 13
0.265289 -0.0812288 1.12346 -0.90776 -0.282575 -0.310037 61 70 59
0.265363 -0.0849279 1.10787 -0.864562 -0.43715 -0.247857 50 56 46
0.266073 -0.0839643 1.11141 -0.772925 -0.596935 -0.215074 52 58 48
0.266388 -0.0856351 1.10564 -0.808058 -0.54713 -0.218381 56 61 52
0.269326 -0.0864265 1.09744 -0.840134 -0.495647 -0.220246 44 47 41
0.295669 -0.0896266 1.08116 -0.839733 -0.504321 -0.201267 100 101 86
0.309029 -0.0910374 1.07292 -0.667759 -0.495961 -0.555086 108 74 47
-0.302136 -0.0637011 1.29722 0.841868 -0.424531 -0.333215 201 217 239
-0.301082 -0.062595 1.29988 0.881068 -0.329605 -0.339235 160 175 195
-0.301694 -0.0627861 1.3008 0.950162 -0.167846 -0.262716 180 197 217
-0.300533 -0.0616398 1.30501 0.905678 -0.324007 -0.273436 141 156 174
-0.198154 -0.0710649 1.2482 0.726154 -0.606814 -0.32323 80 87 82
-0.197084 -0.0695591 1.25184 0.865121 -0.41737 -0.27815 77 83 78
-0.0981348 -0.0980322 1.11631 0.186248 0.152811 -0.970546 112 124 115
-0.0960542 -0.0974283 1.117 -0.545896 0.262692 -0.795607 105 117 109
-0.094027 -0.0970672 1.11571 -0.546356 0.262143 -0.795472 108 121 113
-0.0927791 -0.0977553 1.11593 0.340948 -0.58379 -0.736847 112 125 118
-0.0900202 -0.0978483 1.11372 -0.129742 -0.534222 -0.835329 94 107 98
-0.0880776 -0.0986149 1.11127 -0.694223 -0.551464 -0.462539 104 116 107
-0.0869051 -0.0982904 1.11232 -0.694552 -0.551172 -0.462393 92 104 95
-0.0849228 -0.0984122 1.11035 -0.365098 -0.826936 -0.427645 96 107 98
-0.074407 -0.0990536 1.10519 -0.618473 -0.662981 -0.421838 46 51 46
-0.0729675 -0.0992618 1.10382 -0.626247 -0.49189 -0.604862 42 46 42
-0.0672082 -0.101035 1.09521 -0.5875 -0.689586 -0.423455 23 25 23
-0.0504794 -0.109434 1.05475 -0.314903 -0.889237 -0.331804 34 39 34
-0.0507381 -0.108705 1.05846 0.129751 -0.943144 -0.306012 27 31 27
-0.0509032 -0.108761 1.05982 -0.225343 -0.921133 -0.317387 28 31 27
-0.0491115 -0.109135 1.05509 -0.215827 -0.923592 -0.316853 34 39 34
-0.0486973 -0.110026 1.05416 -0.241006 -0.916562 -0.319109 30 35 30
-0.0456098 -0.110436 1.05208 -0.192796 -0.930446 -0.31161 32 37 33
-0.0429619 -0.110897 1.04899 -0.111682 -0.946763 -0.301938 37 42 39
-0.0423002 -0.110442 1.04998 -0.19158 -0.931036 -0.310593 36 40 37
-0.0369035 -0.110925 1.04673 -0.325541 -0.886739 -0.328204 27 30 26
-0.035302 -0.111095 1.04566 -0.325445 -0.886979 -0.32765 29 31 28
-0.0336952 -0.111295 1.04446 -0.325429 -0.886919 -0.327827 25 27 24
-0.0320233 -0.11156 1.04297 0.235965 -0.926957 -0.29167 31 33 31
-0.0314045 -0.112105 1.0439 -0.420335 -0.800163 -0.427853 27 28 27
-0.0286066 -0.112988 1.03984 -0.544786 -0.752056 -0.370971 28 30 29
-0.0286061 -0.112991 1.03983 -0.542287 -0.753974 -0.370739 28 30 29
-0.0286061 -0.112991 1.03983 -0.542287 -0.753974 -0.370739 28 30 29
-0.0280277 -0.112738 1.04049 -0.633033 -0.6665 -0.393761 27 29 28
-0.0280277 -0.112738 1.04049 -0.633033 -0.6665 -0.393761 27 29 28
-0.0262559 -0.112594 1.0382 -0.718347 -0.54449 -0.433022 27 29 27
0.265599 -0.0811647 1.1142 -0.832488 -0.506937 -0.223558 46 50 43
0.266858 -0.0797506 1.12022 -0.826988 -0.509361 -0.237996 50 56 47
0.266861 -0.0834683 1.10766 -0.884995 -0.394187 -0.247792 47 51 44
0.267113 -0.0850497 1.10188 -0.82036 -0.525284 -0.226025 43 46 39
0.294922 -0.0887127 1.07836 -0.905013 -0.363782 -0.220488 92 96 87
0.302827 -0.0894809 1.07375 -0.817368 -0.542562 -0.193743 91 94 82
0.309195 -0.089819 1.07254 -0.769032 -0.56457 -0.29975 100 85 58
0.321154 -0.0919194 1.05842 -0.884699 -0.391933 -0.252382 118 58 28
-0.422093 -0.0682048 1.29636 0.731028 0.39381 -0.557237 133 100 99
-0.299292 -0.0610977 1.30343 0.916654 -0.292956 -0.271885 124 138 153
-0.198507 -0.0708162 1.23984 0.921249 -0.257022 -0.291961 77 84 79
-0.197039 -0.0681699 1.24904 0.596171 -0.478237 -0.644879 74 82 74
-0.196894 -0.0688138 1.24986 0.835148 -0.271984 -0.478072 73 81 73
-0.17411 -0.0739511 1.2256 0.69761 -0.62694 -0.346824 94 101 100
-0.174446 -0.0739718 1.22568 0.545398 -0.778286 -0.311147 91 98 97
-0.163902 -0.0726281 1.22528 0.920812 -0.143323 -0.362717 99 105 106
-0.125804 -0.0785474 1.19526 0.891737 -0.310018 -0.329686 184 198 219
-0.123181 -0.078247 1.19356 0.81237 -0.450081 -0.370786 132 145 161
-0.1244 -0.0785642 1.19596 0.826377 -0.427907 -0.366055 177 190 211
-0.122793 -0.0784566 1.1922 0.828492 -0.419337 -0.371157 117 129 144
-0.122894 -0.0787846 1.19631 0.810088 -0.306572 -0.499771 145 157 172
-0.121831 -0.0768842 1.20007 0.871737 -0.213373 -0.441074 96 108 115
-0.0989755 -0.0964205 1.11709 -0.513057 0.287135 -0.808904 111 123 113
-0.0940099 -0.0959599 1.11465 0.247059 0.469261 -0.847795 101 115 105
-0.0927648 -0.0966323 1.11489 0.411509 -0.535693 -0.737355 99 112 103
-0.0901543 -0.0958118 1.11396 -0.711933 -0.518396 -0.473727 90 103 93
-0.0886336 -0.0962395 1.11203 -0.716064 -0.509503 -0.477136 86 98 88
-0.0883121 -0.0972112 1.1122 -0.582475 -0.696526 -0.419016 94 106 97
-0.0842695 -0.0971884 1.11002 -0.717618 -0.513483 -0.470488 90 101 93
-0.0828707 -0.0969237 1.1096 -0.444165 -0.740879 -0.503801 58 68 60
-0.0813182 -0.0978093 1.10692 -0.691726 -0.119435 -0.712216 58 68 60
-0.0763515 -0.096833 1.10801 -0.619441 -0.66297 -0.420433 46 50 46
-0.0747274 -0.0975288 1.10396 -0.346925 -0.872049 -0.345214 29 33 29
-0.0731565 -0.099087 1.10021 -0.583066 -0.703244 -0.406795 30 34 30
-0.0592958 -0.105725 1.06608 -0.277342 -0.90341 -0.327004 30 34 30
-0.0576409 -0.105835 1.06489 -0.264441 -0.905511 -0.331843 34 39 35
-0.0574456 -0.107068 1.06437 -0.398012 -0.846242 -0.354205 28 32 29
-0.0559718 -0.106836 1.06527 0.571958 -0.766144 -0.293065 29 32 29
-0.0544367 -0.106983 1.06277 -0.188254 -0.931172 -0.312218 33 38 34
-0.054167 -0.10612 1.06399 -0.130594 -0.848339 -0.513094 37 42 37
-0.0551198 -0.104547 1.07177 0.706222 -0.636454 -0.310123 30 33 30
-0.0519074 -0.108659 1.05421 -0.311617 -0.89083 -0.33063 44 51 44
-0.0524067 -0.108239 1.05693 -0.450654 -0.81739 -0.358867 37 43 38
-0.052493 -0.107781 1.05829 -0.364033 -0.866971 -0.340355 36 42 36
-0.0526075 -0.107337 1.06032 0.108309 -0.950569 -0.291011 33 38 33
-0.0527545 -0.106794 1.06441 -0.255047 -0.839392 -0.479971 27 31 27
-0.0506802 -0.108127 1.05553 -0.301761 -0.894018 -0.331169 46 52 45
-0.0474912 -0.109219 1.04962 -0.337487 -0.880447 -0.333041 57 65 58
-0.0457938 -0.109219 1.05279 -0.419379 -0.838121 -0.348819 38 43 38
0.266479 -0.0813045 1.11213 -0.86621 -0.443031 -0.231095 42 46 39
0.301898 -0.0879738 1.07309 -0.917241 -0.336455 -0.21323 90 93 82
0.302855 -0.0881484 1.07223 -0.795653 -0.577442 -0.18302 85 88 77
0.312458 -0.0897557 1.06549 -0.617568 -0.712218 -0.333699 92 83 57
-0.429185 -0.0712637 1.27319 0.969056 -0.131757 -0.208735 129 83 68
-0.428109 -0.0721781 1.2752 0.961385 -0.213795 -0.173296 130 87 76
-0.428171 -0.0697036 1.28029 0.918914 -0.182765 -0.349561 132 87 76
-0.425315 -0.0699414 1.27988 0.653538 0.445839 -0.61165 136 105 101
-0.425567 -0.0696127 1.28393 0.654813 0.443215 -0.612194 132 94 90
-0.422756 -0.0684669 1.28935 0.6821 0.428254 -0.592738 133 103 102
-0.40228 -0.0661336 1.29176 0.493766 -0.749675 -0.440661 209 231 249
-0.395839 -0.0641109 1.29689 0.966587 -0.153222 -0.205508 217 241 254
-0.163885 -0.0717913 1.22292 -0.254362 -0.900047 -0.353858 108 113 115
-0.13259 -0.0763533 1.19664 0.610453 -0.746847 -0.263756 191 206 225
-0.130497 -0.0775602 1.19194 -0.217636 -0.85297 -0.474423 185 199 219
-0.131098 -0.0768015 1.19705 0.699175 -0.662045 -0.26991 191 206 226
-0.129136 -0.0778061 1.19271 -0.329609 -0.847984 -0.415067 186 200 220
-0.128776 -0.0773956 1.19199 0.587132 -0.681062 -0.437529 178 192 213
-0.128923 -0.0779746 1.19343 0.483933 -0.767911 -0.419667 189 203 224
-0.128563 -0.0787604 1.18851 0.416278 0.189279 -0.889318 180 194 214
-0.123449 -0.0774783 1.19124 0.808773 -0.457426 -0.369659 110 122 139
-0.0998359 -0.0935898 1.12018 -0.359458 0.350705 -0.864752 103 115 105
-0.0972372 -0.0942203 1.11915 -0.513139 0.287292 -0.808796 90 103 93
-0.096504 -0.0939673 1.11733 0.241698 0.472797 -0.847376 90 103 93
-0.091417 -0.0949629 1.11339 -0.256383 -0.838223 -0.4813 74 87 77
-0.0889215 -0.0947968 1.11314 -0.532544 -0.746864 -0.398235 68 81 70
-0.08706 -0.0959804 1.11088 -0.0517813 -0.888763 -0.455433 67 79 70
-0.0841727 -0.0956356 1.10819 -0.717805 -0.513942 -0.469702 45 56 47
-0.0843294 -0.0958471 1.10909 -0.616074 -0.661978 -0.426893 52 64 55
-0.0809418 -0.0973172 1.10258 -0.643863 0.171482 -0.745677 51 59 52
-0.0806136 -0.0977709 1.10173 -0.654331 0.119687 -0.746677 49 57 50
-0.0791475 -0.0976829 1.099 -0.700161 0.0853946 -0.70886 33 39 35
-0.0791472 -0.0976845 1.099 -0.700136 0.0866175 -0.708736 33 39 35
-0.0715007 -0.10196 1.07874 0.672447 0.252125 -0.69588 26 29 26
-0.0588018 -0.105231 1.06336 -0.528689 -0.757629 -0.382735 44 49 44
-0.0545806 -0.105988 1.05863 -0.743027 -0.483169 -0.463097 62 69 62
-0.0542419 -0.106708 1.05893 -0.335468 -0.88031 -0.335433 52 58 51
-0.054429 -0.10638 1.0608 -0.188366 -0.93147 -0.311259 47 53 47
-0.045949 -0.108336 1.04881 -0.368716 -0.866142 -0.337413 61 70 60
0.0111931 -0.0993514 1.07396 0.279236 -0.913679 -0.295328 43 46 41
0.280329 -0.0812212 1.10363 -0.871747 -0.398349 -0.285264 48 49 44
0.283536 -0.0839368 1.08879 -0.738386 -0.606349 -0.295171 41 43 38
0.287369 -0.0841756 1.0858 -0.734679 -0.651009 -0.190875 43 46 39
0.287369 -0.0841756 1.0858 -0.734679 -0.651009 -0.190875 43 46 39
0.295305 -0.0869526 1.07786 -0.892005 -0.399897 -0.210735 70 73 66
0.300282 -0.0873913 1.07297 -0.911258 -0.352136 -0.213562 79 81 73
0.300649 -0.0873404 1.07377 -0.88478 -0.398211 -0.242059 86 88 78
0.313921 -0.0891607 1.06352 -0.839579 -0.254152 -0.480119 94 86 61
0.312653 -0.0893861 1.06092 -0.824578 -0.406771 -0.393202 86 86 62
-0.426385 -0.0715782 1.26608 0.970993 -0.11897 -0.20741 142 109 104
-0.425446 -0.0716517 1.26523 0.952942 -0.248664 -0.173403 147 117 114
-0.428333 -0.0687787 1.27728 0.970144 -0.106635 -0.21783 136 99 89
-0.428182 -0.0695447 1.27698 0.65064 0.447935 -0.613206 132 93 83
-0.427492 -0.0687483 1.28061 0.652223 0.446204 -0.612787 136 99 93
-0.426436 -0.0682976 1.27982 0.652762 0.44606 -0.612317 139 109 105
-0.42606 -0.0689455 1.28207 0.653533 0.4447 -0.612484 137 105 101
-0.1867 -0.0781601 1.19715 0.902968 -0.324086 -0.282165 77 86 77
-0.186631 -0.07298 1.21505 0.928135 -0.167209 -0.332575 82 91 85
-0.165413 -0.0710565 1.21873 -0.402589 -0.819282 -0.408288 130 135 136
-0.166545 -0.0711995 1.2218 -0.772926 -0.126389 -0.621781 115 120 122
-0.163853 -0.0709921 1.22047 -0.255431 -0.898678 -0.356556 114 120 121
-0.163047 -0.070795 1.22264 0.849563 -0.0685921 -0.523009 90 96 99
-0.16106 -0.0706674 1.22106 -0.488226 -0.760406 -0.428274 135 141 144
-0.160035 -0.0716813 1.21814 -0.621883 -0.178115 -0.762585 162 169 171
-0.132023 -0.079677 1.17697 -0.0540327 -0.896044 -0.440665 141 151 167
-0.130486 -0.079548 1.17889 -0.230852 -0.913277 -0.335609 140 152 167
-0.131099 -0.078038 1.18494 0.524115 -0.761288 -0.381765 157 170 188
-0.12871 -0.0801133 1.17725 0.0778992 -0.807009 -0.585379 130 141 156
-0.121847 -0.0772069 1.18796 0.803137 -0.39859 -0.44283 87 99 105
-0.110193 -0.091727 1.12504 -0.666152 0.127085 -0.734909 110 126 112
-0.101894 -0.0915308 1.12432 -0.554602 0.250976 -0.793365 101 112 101
-0.0991624 -0.0923748 1.12071 0.366132 0.444646 -0.817458 93 106 95
-0.09923 -0.0925226 1.12063 0.359015 0.447051 -0.819301 94 107 97
-0.090046 -0.0942426 1.11217 -0.708436 -0.526833 -0.469644 62 74 64
-0.0887696 -0.0940179 1.11108 -0.398459 -0.84269 -0.362082 49 59 50
-0.0883027 -0.0953593 1.10892 -0.64222 -0.629094 -0.437944 56 66 56
-0.0825893 -0.0952639 1.10597 -0.6255 -0.63369 -0.455177 41 49 42
-0.0830701 -0.0948863 1.10689 -0.436682 0.341455 -0.832296 39 48 41
-0.0814954 -0.0957529 1.10586 -0.592583 -0.69053 -0.414745 50 59 52
-0.0671701 -0.102343 1.07277 -0.420917 -0.833364 -0.358236 40 42 39
-0.0663338 -0.10289 1.07245 -0.546501 -0.740968 -0.390261 36 38 36
-0.033671 -0.109752 1.03593 -0.473164 -0.802445 -0.363591 71 82 72
0.00767895 -0.0987051 1.07296 -0.0159265 -0.958322 -0.285247 56 59 55
0.00945787 -0.0990995 1.07374 -0.00492552 -0.958227 -0.285966 58 61 56
0.0129238 -0.0984984 1.07321 0.288444 -0.91193 -0.291863 59 62 56
0.279585 -0.0790083 1.10307 -0.929982 -0.245788 -0.273355 39 42 38
0.283308 -0.0830087 1.08678 -0.799968 -0.565952 -0.199373 36 40 34
0.285646 -0.0842802 1.08491 -0.735041 -0.65013 -0.192474 41 44 38
0.312192 -0.0885997 1.06214 -0.80146 -0.52481 -0.28677 84 86 64
-0.425051 -0.0711674 1.26139 0.96642 -0.137936 -0.216811 148 125 126
-0.423756 -0.0717025 1.25946 0.96615 -0.191903 -0.172416 152 133 136
-0.427776 -0.068224 1.2781 0.94658 -0.153074 -0.283823 136 103 96
-0.412141 -0.0697935 1.26435 0.962445 -0.202254 -0.181089 181 193 213
-0.400382 -0.0619046 1.29748 0.921824 -0.282766 -0.265113 217 240 254
-0.394211 -0.0604109 1.30245 0.943859 -0.269758 -0.190685 219 245 254
-0.187089 -0.0717464 1.2142 0.393597 -0.424128 -0.815596 85 94 88
-0.18562 -0.0718843 1.21455 0.912188 -0.286842 -0.292634 98 106 100
-0.168045 -0.0700962 1.22125 -0.17111 -0.928107 -0.330664 101 106 107
-0.165721 -0.0710932 1.21802 -0.469671 -0.780043 -0.413451 120 126 127
-0.163644 -0.0707565 1.21683 -0.0247956 -0.737056 -0.675377 120 126 128
-0.162228 -0.0700718 1.21651 -0.489273 -0.765537 -0.417811 101 108 109
-0.162378 -0.0708024 1.21876 -0.235547 -0.905226 -0.353672 94 101 101
-0.1472 -0.0756626 1.19089 0.65257 -0.655071 -0.380835 185 197 214
-0.134928 -0.0801104 1.17456 -0.122019 -0.608673 -0.783983 159 170 188
-0.133117 -0.079613 1.17236 0.182405 -0.71911 -0.670529 119 130 142
-0.13172 -0.0801101 1.17289 -0.254942 -0.822561 -0.508328 120 129 142
-0.130147 -0.079784 1.17126 0.750562 -0.541972 -0.378053 102 112 121
-0.130335 -0.0799579 1.17521 -0.272446 -0.879408 -0.390404 119 129 143
-0.129893 -0.0798151 1.17286 0.311004 -0.425512 -0.849833 102 112 123
-0.12862 -0.0796838 1.17455 0.593171 -0.72963 -0.340277 105 115 127
-0.12891 -0.0790814 1.17347 0.441186 -0.715954 -0.541077 95 105 113
-0.10952 -0.0910981 1.12255 -0.645909 0.151897 -0.74815 110 125 112
-0.109429 -0.0907863 1.12245 -0.664817 0.128166 -0.735929 105 120 108
-0.103863 -0.0897334 1.12526 -0.0476902 0.375167 -0.925729 88 100 89
-0.100092 -0.091151 1.12085 0.364834 0.444855 -0.817924 92 105 95
-0.0928704 -0.0923451 1.11417 -0.347846 -0.786735 -0.509952 54 65 57
-0.0915957 -0.0920633 1.11323 -0.194865 -0.523332 -0.829549 53 63 55
-0.0900397 -0.0925623 1.1109 -0.533504 -0.346166 -0.771714 42 51 43
-0.0884586 -0.0935252 1.10851 -0.504921 -0.606391 -0.614284 45 53 45
-0.0659582 -0.101712 1.07078 -0.644797 -0.42609 -0.634574 59 61 58
-0.0640549 -0.102112 1.06753 -0.100272 -0.948286 -0.301164 67 70 65
-0.035874 -0.108208 1.03959 -0.34134 -0.87681 -0.33866 82 93 82
-0.0368067 -0.107704 1.03897 -0.425171 -0.837814 -0.342486 81 94 82
0.0102682 -0.0985915 1.07008 0.294481 -0.90955 -0.293258 41 45 38
0.0168918 -0.0966318 1.07547 0.771328 -0.430858 -0.468416 26 27 24
0.286016 -0.0822741 1.08651 -0.85351 -0.478545 -0.206193 35 39 32
0.286016 -0.0822741 1.08651 -0.85351 -0.478545 -0.206193 34 38 33
-0.314087 -0.0631928 1.27093 0.939726 -0.167504 -0.298089 215 238 253
-0.192464 -0.0714394 1.21247 0.905102 -0.274728 -0.324521 70 81 73
-0.191072 -0.0710519 1.21325 0.893246 -0.354611 -0.276338 79 89 80
-0.191848 -0.0709158 1.21311 0.905866 -0.316587 -0.281388 73 83 75
-0.185454 -0.0721717 1.21006 0.865526 -0.423042 -0.268143 101 109 104
-0.172321 -0.0690063 1.21911 -0.485842 -0.620338 -0.615743 89 96 95
-0.170603 -0.0692677 1.21692 -0.653417 -0.573296 -0.494346 117 123 123
-0.16953 -0.0700671 1.21745 -0.397619 -0.830186 -0.390756 110 117 117
-0.169512 -0.0688318 1.2166 -0.0916108 -0.944869 -0.314372 121 128 128
-0.168019 -0.069357 1.21881 -0.17122 -0.92803 -0.330824 97 102 102
-0.16744 -0.069911 1.21699 0.269797 -0.873077 -0.406135 94 99 99
-0.166714 -0.0707145 1.21029 -0.0298261 -0.952977 -0.301571 99 106 104
-0.165532 -0.0704699 1.21472 -0.528155 -0.727202 -0.43844 110 116 116
-0.165497 -0.0705468 1.21454 -0.457824 -0.772206 -0.440562 110 116 116
-0.164026 -0.0703769 1.21297 -0.525635 -0.732251 -0.433032 133 140 140
-0.163731 -0.0707075 1.21323 -0.437745 -0.802305 -0.405814 133 139 139
-0.162406 -0.0701996 1.21506 -0.42061 -0.813681 -0.401262 103 109 110
-0.139623 -0.0789093 1.17193 -0.241847 -0.908472 -0.340865 133 147 161
-0.13883 -0.0764509 1.18384 -0.379733 -0.845278 -0.375909 170 184 203
-0.138053 -0.0789604 1.17357 -0.071789 -0.897054 -0.43605 145 158 175
-0.134998 -0.0781918 1.17329 0.0410052 -0.900073 -0.433806 113 124 134
-0.131751 -0.0788634 1.17197 0.797105 -0.483414 -0.36185 106 117 124
-0.129991 -0.0789521 1.16857 0.852929 -0.427042 -0.300244 99 110 112
-0.1281 -0.0788621 1.17212 0.688423 -0.673927 -0.268135 94 104 109
-0.107966 -0.0900592 1.12109 -0.619831 0.1807 -0.763647 86 100 89
-0.107104 -0.0896129 1.12318 -0.447438 0.172534 -0.877514 96 109 99
-0.107104 -0.0896129 1.12318 -0.447438 0.172534 -0.877514 96 109 99
-0.102775 -0.089764 1.12375 0.0561457 0.480888 -0.874982 93 105 94
-0.101933 -0.0900886 1.12187 0.364502 0.444849 -0.818075 97 109 99
-0.0985303 -0.0897826 1.12113 -0.112015 0.464853 -0.878274 70 83 74
-0.098529 -0.0897906 1.12112 -0.111391 0.464867 -0.878346 70 83 74
-0.0967794 -0.0903221 1.11986 -0.118218 0.383642 -0.915884 75 87 79
-0.0968471 -0.0904328 1.11969 -0.155338 0.455513 -0.876572 72 84 76
-0.0966911 -0.0896615 1.11978 -0.690791 -0.554882 -0.463587 64 75 66
-0.0655858 -0.100511 1.06916 -0.587173 0.29322 -0.754486 83 87 82
-0.0629152 -0.102321 1.06395 -0.529776 -0.757092 -0.382295 77 81 75
-0.0616422 -0.102419 1.06201 -0.529771 -0.757774 -0.380948 78 83 74
0.00920552 -0.097373 1.06869 0.496213 -0.534594 -0.684092 42 46 39
0.299949 -0.0838979 1.0711 -0.862726 -0.466794 -0.19444 40 43 38
0.33221 -0.090072 1.0399 -0.775054 -0.448473 -0.445155 111 58 27
0.332345 -0.0897163 1.03827 -0.857182 -0.446534 -0.256604 110 60 31
-0.425227 -0.0675206 1.26799 0.969274 -0.188029 -0.158599 160 149 155
-0.19268 -0.0712756 1.20841 0.836547 -0.235323 -0.494785 74 84 77
-0.183356 -0.070889 1.2084 0.737795 -0.628411 -0.24649 92 100 96
-0.172622 -0.0694903 1.21213 -0.182819 -0.924907 -0.333354 88 95 94
-0.168825 -0.0711221 1.2045 -0.548457 -0.635246 -0.543744 108 115 113
-0.165346 -0.0687498 1.21318 -0.66776 -0.553106 -0.498167 126 133 132
-0.152373 -0.0718405 1.19718 0.273108 -0.793335 -0.544087 142 151 159
-0.145238 -0.0743522 1.18685 0.329031 -0.79009 -0.5172 169 184 201
-0.140267 -0.0798871 1.16486 -0.524435 -0.72885 -0.440165 118 131 137
-0.140267 -0.0798871 1.16486 -0.524435 -0.72885 -0.440165 118 131 137
-0.140785 -0.0786651 1.17083 -0.492611 -0.767807 -0.409643 126 139 151
-0.128786 -0.0780101 1.17112 0.772538 -0.518469 -0.366571 98 108 110
-0.11984 -0.089128 1.12338 -0.749161 -0.0366812 -0.661372 104 118 109
-0.0986895 -0.0883193 1.11985 -0.418991 0.346586 -0.83924 55 65 58
0.00918431 -0.0958621 1.06883 0.379821 -0.863404 -0.332069 46 50 43
0.0106543 -0.0961382 1.06598 0.746731 -0.551999 -0.371065 55 60 52
0.0161696 -0.0945461 1.07195 0.779229 -0.495115 -0.384269 12 13 11
0.33239 -0.0899985 1.03573 -0.913588 -0.324549 -0.244999 109 60 32
-0.305295 -0.056683 1.28181 0.938118 -0.158911 -0.307705 130 146 168
-0.304325 -0.0554221 1.28415 0.937091 -0.162648 -0.308881 111 125 145
-0.189793 -0.0710689 1.19935 0.908911 -0.288688 -0.3009 89 99 93
-0.179078 -0.0673708 1.21251 0.77593 -0.143138 -0.614365 102 109 108
-0.176975 -0.067827 1.21337 -0.151157 -0.541083 -0.827273 95 103 102
-0.172336 -0.0707187 1.19924 -0.63278 -0.603455 -0.485212 99 106 105
-0.170482 -0.0698034 1.20427 -0.507748 -0.747614 -0.428095 90 96 95
-0.168482 -0.0709537 1.19944 -0.568997 -0.619902 -0.540337 103 111 108
-0.152802 -0.0720409 1.19059 0.776403 -0.0894272 -0.62386 102 112 115
-0.142438 -0.0736867 1.18496 -0.374742 -0.783874 -0.495086 137 152 168
-0.122271 -0.0853795 1.13266 -0.0256842 -0.666368 -0.74518 101 116 108
-0.121769 -0.0855825 1.13082 -0.759884 -0.0507232 -0.648077 96 110 101
0.00825183 -0.0956702 1.06651 0.185231 -0.806421 -0.561582 42 47 40
0.304437 -0.0817618 1.0683 -0.850629 -0.455657 -0.26231 33 37 32
-0.40601 -0.0725941 1.22968 0.939231 -0.188371 -0.286986 196 213 231
-0.406747 -0.07268 1.2287 0.803367 -0.559475 -0.203933 192 208 226
-0.411694 -0.0632937 1.2714 0.79628 -0.567518 -0.209432 203 225 245
-0.408312 -0.0599735 1.27991 0.908662 -0.323173 -0.264372 213 238 253
-0.406983 -0.0594525 1.28122 0.88463 -0.423281 -0.195607 215 241 254
-0.306981 -0.0559744 1.27753 0.842611 -0.370774 -0.390556 150 168 191
-0.305793 -0.0551857 1.27948 0.937348 -0.159425 -0.309778 121 137 157
-0.304052 -0.0547668 1.28391 0.932851 -0.159452 -0.323054 105 119 138
-0.180516 -0.0676832 1.20823 -0.50399 -0.748365 -0.431211 87 96 94
-0.178493 -0.0681577 1.20671 0.425574 -0.797891 -0.426915 95 103 102
-0.178021 -0.0688545 1.20547 -0.446305 -0.79148 -0.417578 99 107 106
-0.175652 -0.0698277 1.20077 -0.458155 -0.766295 -0.450429 105 113 112
-0.173758 -0.0701486 1.19881 0.0676221 -0.67898 -0.731036 79 86 85
-0.172657 -0.0715774 1.19281 -0.161854 -0.66476 -0.729313 88 94 93
-0.171965 -0.0700632 1.19595 -0.577417 -0.643642 -0.502308 116 124 121
-0.170066 -0.0707925 1.19652 -0.508152 -0.747269 -0.428218 101 108 106
-0.161654 -0.0674548 1.20325 0.797695 -0.376045 -0.47146 106 113 109
-0.161418 -0.0674676 1.2031 0.779265 -0.322481 -0.537357 105 113 109
-0.158297 -0.065852 1.21285 0.856855 0.0834998 -0.508751 110 118 120
-0.144477 -0.0678383 1.20155 0.00338092 0.455682 -0.890136 160 176 189
-0.143814 -0.0682925 1.20006 0.217472 0.45735 -0.862286 156 171 185
-0.130076 -0.0829204 1.13616 -0.787337 -0.203793 -0.581867 108 122 113
-0.12473 -0.0835654 1.13129 -0.105841 -0.883851 -0.455637 105 117 108
-0.124774 -0.0843472 1.13328 0.3907 -0.884553 -0.254792 105 118 109
-0.123391 -0.0839279 1.13059 0.0817424 -0.411291 -0.907831 95 107 98
-0.120348 -0.085738 1.12641 -0.751793 -0.0292075 -0.658752 94 107 98
-0.112357 -0.0855057 1.12556 -0.350042 0.37963 -0.856359 82 96 87
-0.109197 -0.0847733 1.12743 -0.299944 0.403713 -0.86432 71 82 73
-0.10782 -0.0844018 1.12531 -0.25059 0.42075 -0.87188 62 72 64
-0.0866543 -0.0965064 1.07386 -0.776397 -0.0570808 -0.627654 84 92 82
-0.0859989 -0.0962238 1.07407 -0.666197 -0.598686 -0.444698 87 95 86
-0.0480437 -0.102954 1.03932 -0.693084 -0.580818 -0.426948 90 102 89
0.000585024 -0.0948691 1.06607 0.610934 -0.72156 -0.325746 47 50 48
0.00264336 -0.094147 1.06778 0.555312 -0.769564 -0.315276 55 57 53
0.0103451 -0.0946316 1.06491 0.577567 -0.688732 -0.438252 63 68 60
0.123457 -0.0503892 1.22465 -0.875133 -0.0380081 -0.482387 37 38 37
0.320222 -0.0860364 1.04399 -0.899769 -0.383506 -0.208182 69 71 63
-0.404756 -0.07462 1.21455 0.96152 -0.212346 -0.174321 191 205 222
-0.407489 -0.0589164 1.28053 0.951729 -0.184227 -0.245505 215 241 254
-0.30743 -0.0545379 1.27584 0.894542 -0.282326 -0.346537 129 146 169
-0.302201 -0.058974 1.26175 0.741922 -0.614197 -0.268914 105 120 141
-0.195795 -0.0696232 1.1948 0.701259 -0.675048 -0.229229 74 82 77
-0.185109 -0.0677215 1.20028 0.919622 -0.132876 -0.369649 91 99 97
-0.17858 -0.0674297 1.20507 -0.291868 -0.866363 -0.40525 88 96 94
-0.178078 -0.0675794 1.20376 -0.584744 -0.665175 -0.464346 97 104 102
-0.177935 -0.0677444 1.20325 -0.584688 -0.665788 -0.463537 99 106 104
-0.174845 -0.0697565 1.19405 -0.546906 -0.708727 -0.445645 132 139 137
-0.17598 -0.0683552 1.19891 -0.106434 -0.867202 -0.48645 130 138 136
-0.173327 -0.0696735 1.19246 -0.552593 -0.702996 -0.447703 95 101 99
-0.161512 -0.0669698 1.20394 0.753945 -0.333588 -0.565939 104 112 107
-0.132893 -0.0809757 1.13815 -0.309772 -0.569721 -0.761223 97 111 101
-0.131245 -0.0813704 1.13664 -0.735857 -0.368449 -0.568119 107 122 113
-0.127155 -0.0826092 1.13434 -0.4958 -0.769384 -0.402779 92 105 95
-0.126218 -0.0833119 1.13214 -0.71382 0.026145 -0.699841 98 111 101
-0.111314 -0.0834649 1.1283 -0.126703 0.520641 -0.844322 59 71 62
-0.0868607 -0.0948041 1.0738 -0.499162 -0.77667 -0.384216 96 106 93
-0.0832988 -0.0957122 1.07144 0.532826 -0.800609 -0.274083 90 98 88
-0.0478211 -0.102871 1.03736 -0.72721 -0.524544 -0.442742 70 81 68
0.000955016 -0.0930721 1.06681 0.607904 -0.723404 -0.327322 49 52 49
0.00258419 -0.0933992 1.06534 0.384456 -0.872565 -0.301371 55 59 54
0.00423479 -0.0929672 1.06632 0.510041 -0.761349 -0.400257 63 68 62
0.30593 -0.0791044 1.06992 -0.910476 -0.326051 -0.254411 32 36 30
0.309289 -0.0813242 1.05927 -0.880043 0.191352 -0.434636 36 38 34
-0.307449 -0.0544806 1.2749 0.870443 -0.323202 -0.371309 128 145 168
-0.19932 -0.0727518 1.18198 0.87254 -0.236113 -0.427696 68 75 72
-0.199466 -0.0714665 1.18351 0.750273 -0.435723 -0.497228 68 75 71
-0.181694 -0.0664714 1.1993 -0.272759 -0.894375 -0.354537 99 107 104
-0.179282 -0.0668484 1.19999 -0.58418 -0.666243 -0.463524 82 90 88
-0.1797 -0.0674353 1.20021 -0.272946 -0.894076 -0.355145 81 89 87
-0.177102 -0.0677426 1.19467 -0.726506 -0.408884 -0.552271 100 108 106
-0.17507 -0.068662 1.19192 -0.767428 -0.199356 -0.609354 126 134 131
-0.134186 -0.0803446 1.13752 -0.278246 -0.894038 -0.351107 96 112 101
-0.128718 -0.0816448 1.13383 -0.774237 -0.100126 -0.624926 90 105 94
-0.127137 -0.0817084 1.13257 -0.319887 -0.80938 -0.492521 91 106 95
-0.0876576 -0.0946022 1.07394 -0.564336 -0.718802 -0.406016 90 99 86
-0.0494003 -0.101084 1.03958 -0.721443 -0.533815 -0.441092 65 75 64
0.0007923 -0.0941752 1.05612 0.837563 -0.361913 -0.409277 52 55 52
0.00268495 -0.0926164 1.06329 0.428834 -0.85019 -0.305415 56 60 55
0.306127 -0.0776642 1.06821 -0.944072 -0.213015 -0.2517 32 36 31
0.342511 -0.0886052 1.0172 -0.951323 -0.24336 -0.189107 104 55 33
-0.308055 -0.0531119 1.27465 0.912653 -0.24632 -0.326175 120 136 160
-0.199644 -0.0685147 1.18848 0.907311 -0.318668 -0.274295 74 80 77
-0.190867 -0.0669523 1.1943 0.845256 -0.412862 -0.339245 117 125 121
-0.132 -0.0793051 1.13584 -0.762529 -0.078 -0.642235 102 116 106
-0.13031 -0.0801824 1.13389 -0.778764 -0.262135 -0.569923 100 113 104
-0.0880284 -0.0933515 1.07204 -0.58179 -0.702488 -0.409915 90 100 88
-0.0509365 -0.0986442 1.04214 -0.721881 -0.532084 -0.442463 64 74 63
0.266669 -0.0632276 1.12926 -0.897878 -0.316591 -0.305918 53 58 50
0.322776 -0.0833834 1.03872 -0.849355 -0.469779 -0.240633 51 53 48
-0.436477 -0.0619231 1.25361 0.974571 -0.0958026 -0.202565 143 108 106
-0.298402 -0.0565685 1.24838 0.94246 -0.227204 -0.245252 79 95 104
-0.193816 -0.0672108 1.18971 0.810363 -0.526192 -0.257747 118 126 122
-0.192734 -0.0659998 1.19267 0.852704 -0.455975 -0.254918 113 121 117
-0.181162 -0.0659279 1.19199 0.891036 -0.335784 -0.305456 101 111 106
-0.131129 -0.0778192 1.13359 -0.78343 -0.16863 -0.598166 82 93 83
-0.0668874 -0.0960833 1.05363 -0.555983 -0.654405 -0.51248 78 86 74
0.000457266 -0.0913267 1.05632 0.689205 -0.344612 -0.637369 54 57 54
0.00603123 -0.0913774 1.05798 -0.543151 -0.769801 -0.33525 50 54 49
0.0114171 -0.0897449 1.0628 0.590689 -0.671246 -0.447791 27 30 27
0.26686 -0.0607072 1.13102 -0.868577 -0.439199 -0.229519 57 66 58
0.320484 -0.0807114 1.04488 -0.932993 -0.292915 -0.209106 39 41 36
0.325022 -0.0826122 1.03318 -0.902182 -0.207147 -0.378362 47 51 44
-0.193491 -0.0661585 1.18691 0.400712 -0.226013 -0.88789 107 115 112
-0.192193 -0.0655069 1.18797 0.818306 -0.154538 -0.553618 82 90 88
-0.189764 -0.0646997 1.19429 0.80616 -0.405937 -0.43049 84 94 89
