ply
format ascii 1.0
element vertex 323
property double x
property double y
property double z
property uchar red
property uchar green
property uchar blue
end_header
0.0187244368474364 -0.0681710162196197 0.9796598969849486 113 119 115
-0.1017914050820112 -0.0440694518818955 1.0526028188310266 65 80 85
0.2654402735605895 0.0143251847917763 0.9230585395858358 83 96 79
0.0768152105217929 0.0123325135191576 0.9569436081903845 116 127 113
0.1062619838271874 0.0245689074698684 0.9507858145383594 110 121 104
0.2127546120306831 0.0275705606356362 0.9309876502883755 88 96 83
0.2066548504651903 0.0283588264901365 0.9328724611351905 108 111 102
0.1270578561138791 0.0303784157715425 0.9459596665856040 122 133 117
0.2962588164166564 0.0622718953168551 0.9450421105161737 81 87 77
1.0486652212146974 -0.4764646863571629 2.2670079846496503 153 125 104
0.7906768399810400 -0.1534192108586211 1.6026996205745483 147 126 123
0.0317126579208607 -0.1375043333830566 1.1023298507525714 147 130 100
0.2328623821763278 -0.0754645867770519 1.1473264069323021 81 88 80
-0.1086114359123974 -0.0517828123607849 1.0568909078349078 145 150 156
-0.1711881275374801 -0.0311578230624109 1.1008806405915641 239 253 255
0.7505744511354399 -0.1616614909886429 1.6221065135690838 144 115 117
0.0653476078717363 -0.0118163786256738 0.9558577886057964 128 140 126
0.3012913396276323 -0.0016606632299138 0.9247468476159506 99 101 96
0.7377437759913604 -0.1289558197246996 1.5610954085855022 156 141 144
0.7694729207003405 -0.1250463012325639 1.5558044866633614 160 141 147
0.7607246304150567 -0.1170579467238769 1.5362580161532322 112 52 62
-0.4132662920718057 0.1726561815049004 1.1949966232820890 121 59 18
-0.1033237890923445 -0.0537971987240601 1.0505912959123389 79 89 98
0.0355326805109242 -0.0184040234814489 0.9643064600879161 116 128 116
0.4040290023330277 0.2327203564089223 0.9991634234231613 180 136 99
0.0467919646411777 -0.0087237782845593 0.9602651109554265 108 120 106
0.3122761324653686 -0.0079640443648905 0.9249033755325102 83 90 83
0.1409758808546099 -0.4054599062559877 1.8005760610569217 178 166 152
0.2322126453884676 0.0227538745918332 0.9265608718420721 93 99 87
0.0973488621682585 0.0220473160179763 0.9506622412494483 114 122 107
0.1991790320189641 0.0282121976133177 0.9317748045016907 99 109 98
0.1192257685913940 0.0289393896450689 0.9477416342214927 115 125 114
0.1566797910906495 0.0322756233172586 0.9380269887195036 107 112 105
0.2979530468808904 0.0662597130135848 0.9446515526683803 110 111 103
0.4114280146853786 0.1075717213244993 1.0901513412633705 144 143 149
0.3705228312917000 0.1951395736405704 1.0421416069830836 127 111 124
0.1502688318087633 0.2023533015919534 1.0844277369356965 105 76 46
0.0476296729668041 0.1840650209260725 1.1255910178244266 88 53 34
0.0901634604095993 0.1900192217730446 1.1066728444935847 92 49 42
0.1309112358816254 0.1971955854081474 1.0894284476156633 114 78 54
-0.2640396109684141 0.1644874511682072 1.1607458134618269 156 156 154
-0.2446192789089891 0.1658367032455696 1.1473762881265686 152 143 138
-0.0422601603269134 0.1770450539756448 1.1435722085547138 86 43 26
0.3669590775544748 0.2048587506095907 1.0448543312852134 78 47 42
0.8028213030639986 -0.1596491380960795 1.6008757997949499 95 52 61
-0.7357808589000803 -0.3787582179207497 1.7644482396431744 63 62 44
0.3405907497878359 0.2053249185243313 1.0293194845249269 150 144 146
0.0625330359693458 0.1843757502676546 1.1175921950162075 91 54 38
0.1990738624266289 0.2102232915557936 1.0585598727097767 106 60 47
0.0754678834532663 0.1865846273366067 1.1126836161608957 108 66 50
0.2332041584391769 0.2080681185361813 1.0428830647643261 160 161 156
0.1655372021965889 0.1982974492340314 1.0698573229779966 157 147 145
0.7744933834493006 -0.1382478347610318 1.5739005829367776 92 41 50
0.3253983955987557 0.2088352731993638 1.0287427195686405 155 157 152
0.3574823997211345 0.2026594426690378 1.0394440049383247 137 129 126
0.2277841125467536 0.2150924504087499 1.0520142960837942 122 82 57
0.1866401596853088 0.2075883071566638 1.0652699965839965 99 68 40
0.2059565863391694 0.2049247360059010 1.0502888647344213 149 149 149
0.2181166624622999 -0.0840326877515491 1.1471258136052773 35 36 31
0.3355376989086867 0.2156450101550798 1.0365905340809316 58 35 21
-0.0416466381542393 -0.0614583848053142 1.0208816777288074 40 48 71
0.3185918917234856 0.2172873093850419 1.0309527073082869 85 59 44
0.2853682332596774 0.2191232198681893 1.0286655399847489 106 55 36
0.3025196888480301 0.2189758435494728 1.0298410879985911 87 52 46
-0.0860163017278038 -0.0541003590353890 1.0477160883863699 72 88 111
0.2066118830190729 -0.0783430593890336 1.1588762789267153 97 99 94
-0.1376047007561736 -0.0492665597179143 1.0759395007836756 209 234 254
-0.1152506060401441 -0.0469136852558991 1.0671341022182763 63 70 76
-0.1294390024211580 -0.0452869381655347 1.0653717716727173 87 103 126
0.2673972344729293 -0.3906947520278666 1.7805504184769445 165 154 136
1.0859620106409977 -0.5109622067380112 2.3450893227461762 55 40 21
0.2470807139034881 -0.3923607945697173 1.7556167019678939 56 39 32
0.0185746415564634 -0.3859902958971496 1.8146781030736046 190 183 167
0.6076852462446144 -0.3260919156084829 1.7219470056109714 43 39 40
0.8197762752132721 -0.1827426033933142 1.5852533963186406 151 125 134
0.7899665774455897 -0.1670522198513346 1.6230004793306863 115 47 62
-0.1257790499259836 -0.0539448872535175 1.0818762105320692 209 230 249
0.0077515657166345 0.1496605933127001 1.0860858947159042 122 116 118
0.0232612944248218 0.1515374317393734 1.0853470828505685 126 116 117
0.0525928495956273 0.1544848983102374 1.0770047566996055 126 117 120
0.0666794160483979 0.1557146048721640 1.0696227110663235 120 116 115
-0.1359544686222017 -0.0355709337608123 1.0692864693421520 214 232 252
0.0809902612260728 0.1585591490808111 1.0684198086545054 135 128 136
0.0945329503704164 0.1598771237246996 1.0596468327489543 123 123 131
-0.1836621759498479 0.1668030869005068 1.1396715800058537 168 157 163
-0.2144594115554510 0.1681851732558742 1.1454511910935052 167 151 152
0.1086806613972262 0.1638982404480422 1.0564563044678579 129 124 130
-0.1513011350255888 0.1682047886587648 1.1387056601095988 160 146 145
-0.2705009823484626 0.1714645449975554 1.1673368021653978 79 58 53
-0.1989842954552403 0.1691553335038256 1.1447616540609076 160 148 148
0.0781806533861561 0.1753094735961656 1.0974658845746978 148 146 149
0.0922320590190478 0.1772819031162612 1.0912157753182945 160 150 161
0.0501462404698506 0.1719791846780958 1.1087845000285657 138 130 127
-0.2373049713151051 0.1757518905746482 1.1557344931290479 91 50 32
-0.1077555466359766 0.1772428475711498 1.1468203124184617 62 25 9
-0.0908720706916965 0.1769864765874516 1.1462678588467659 64 29 9
-0.0745220036512343 0.1766088005167477 1.1459279546852348 72 49 31
0.2478895446426892 0.2097083259130438 1.0393773856304518 160 161 165
-0.0593907537468839 0.1765885968439487 1.1448309584607030 70 48 34
-0.2214232577067179 0.1771379388987422 1.1569930787534133 97 61 63
0.3509369840602473 0.2104104308856256 1.0353783344629837 76 49 38
0.2781781209000275 0.2115325172192581 1.0292023456622854 164 163 171
-0.0120268340688376 0.1782480206908885 1.1363148087146031 90 51 20
0.2928916784111703 0.2109139775527431 1.0268072483544017 167 166 174
-0.2052511122677852 0.1790938500876680 1.1565646518812562 72 42 16
0.3089617960895115 0.2100433826286435 1.0254946487136323 164 162 163
-0.1728005600982875 0.1781600527381285 1.1506117774900124 102 65 36
-0.1559219330310584 0.1785615888412566 1.1487153048981411 66 33 16
0.4509892374328844 -0.4119140178033923 1.7036338414930337 198 188 178
0.5487874202726530 -0.3305228546703057 1.6797398870286493 133 92 64
0.3185091802297884 -0.2771975914736001 1.8665782004380798 152 134 114
-0.0357770471397328 -0.3937455945203830 1.8206782321210868 158 145 129
0.3366082996594627 -0.2587077122354266 1.8947072443622892 40 21 7
0.7456844432316749 -0.1262895197102511 1.5495500103383197 170 157 166
-0.1221530108980800 -0.2639200111540319 1.9920281327332701 138 97 77
0.2505493186185715 0.1471518494563378 0.9909041352152095 72 78 74
-0.1781622007967155 -0.0341373274718980 1.1040159656064790 151 168 186
0.3972260252374645 0.1315521948552890 1.0642233822705891 208 228 253
0.7943765938775542 -0.1461318964268553 1.5434013753131661 151 129 132
-0.4504050796310790 0.0612485607393799 1.2324900183066310 181 187 203
0.2712184096190742 0.1477871165735523 0.9873788958675680 81 85 88
-0.1589515493949058 -0.0529929113259936 1.1243043362211995 69 79 71
-0.1107106951095595 -0.0386689013904794 1.0549487941461200 80 87 80
0.7250826889732663 -0.1414915036616128 1.5928461240111635 105 34 38
-0.0442757886881118 -0.0611251875491912 1.0154499027892943 142 153 185
-0.0896662093737141 -0.0532391846206028 1.0473474374023215 130 145 168
0.6043282152081224 -0.3334863580067065 1.7547227497242335 145 134 130
0.5640426403298388 -0.3151864955223239 1.8038504386772816 149 120 104
0.5915916264252723 -0.3298238706834608 1.7589284935195262 158 135 127
-0.7700267558575187 -0.3838411885488490 1.7438621779868519 111 102 87
0.8084285002355602 -0.1664905642482455 1.5433289334498499 100 77 69
0.6796709079193204 -0.5791437812215101 1.8480242000996698 200 205 227
0.7461698295528931 -0.3017530561354149 1.9566260783534943 139 86 55
-0.1070598059389654 -0.2181065622981140 1.8642012266973760 101 40 11
-0.1256197942713186 0.1772729103365263 1.1449174571198719 98 56 40
-0.1323198559462977 -0.2095220160870746 1.8620614317737261 142 95 87
0.0205036874955664 -0.3827589565699558 1.7886715852894757 188 179 164
0.3952046468657830 0.1933637457597485 1.0694600114770245 75 42 33
-0.0073763365210064 -0.1120381007963462 1.0493907024106122 14 14 14
0.2785350470458828 -0.3324099208137152 1.8787262581640947 164 150 137
0.1608391306065700 -0.4054099910162599 1.7493108639069090 181 169 155
-0.0045346072977757 -0.3621626713748011 1.7832071585412104 38 20 20
0.8557207731183513 -0.3715771375343153 2.0738544567705186 77 39 18
-0.7326698909213807 -0.3831461461338132 1.7154689303004744 171 165 149
-0.0838110277676944 -0.0647592491114203 1.0525400882763991 229 247 255
0.5754645360036672 -0.3285046805706450 1.6129028743334486 253 252 255
-0.1134076896555238 -0.0663175604407163 1.0916164501885650 68 79 75
0.4506185390565696 0.1081652512247303 1.1606709771846651 60 29 11
0.7896867007978934 -0.0865991019305584 1.4494639863970165 149 132 140
0.8945465064478548 -0.1940327978613207 1.5150653833099681 133 116 109
-0.3074976526464926 0.1680056963065237 1.1592748671354838 118 54 16
0.5283764969399438 -0.3906482417955919 1.6514551790196903 189 180 171
0.7513283356120404 -0.0693661324670286 1.5434756832559020 56 20 24
-0.3359428781127307 0.0418497747681576 1.1911178499899604 71 78 71
0.2485081894608351 0.2212704030613934 1.0550456582218593 118 82 58
-0.1357081702309931 0.2285894683815861 1.0696543478165792 100 47 0
-0.1057506367869222 0.2441559894148343 1.0288616847364283 95 39 0
0.7487538041470496 -0.1407276261635261 1.5788026599188651 156 145 143
0.0384281703301732 0.1563385564822205 1.0939734612298553 124 115 118
0.0647236266381397 0.1756387966095533 1.1089876104566954 155 140 145
-0.1672965165244905 0.1642626936756228 1.1320189087628307 159 154 151
-0.0276921997157212 0.1804356258734496 1.1528921209183745 88 49 32
-0.1889949398703324 0.1774694394421671 1.1488235569119305 84 62 41
0.1225248873862870 0.1666216349479706 1.0564913011295074 143 138 144
-0.2127851909140664 0.1504436473034554 1.1440366123830310 130 127 136
-0.0536646276901042 0.1525946407708032 1.1179873633373365 117 117 117
-0.2407568139247855 0.1795331989858633 1.1657103641192799 98 52 29
0.3656039603974786 0.1588443442722264 1.0002636604806252 140 138 152
0.0725977241730588 -0.0265860833275683 1.0204633659262636 13 13 13
-0.1531029567891255 0.1799927337833809 1.1453397214212957 94 46 10
-0.1972599889757209 0.1788258511262914 1.1363727415735172 144 80 36
0.0965004143826647 0.1944737982015446 1.0973689832699978 121 65 30
0.0488442736037092 -0.0340948009288642 0.9676529507299082 81 86 80
0.0399945091918532 -0.0131852284216250 0.9652126319449592 113 127 114
0.1461229181870137 0.0199177191711323 1.2327720555698352 26 35 30
-0.2057351601300069 0.0120976792465265 1.0846702981824545 113 120 112
0.0786538820338008 0.0085944618777935 0.9564282606593458 52 65 48
0.1114368166203099 0.0099825417733857 0.9459110133199624 103 113 102
0.2591251527038843 0.0161600992170571 0.9235384114902082 85 100 81
0.9118837737792101 -0.1607771189345395 1.4934822600499513 104 95 96
0.8202379349898594 -0.1739175692572940 1.6357400592475364 149 122 127
0.0012488373938496 -0.0488619364062756 0.9822759429522666 41 46 40
-0.0008947656067667 -0.0959466366330102 1.0158448758366945 22 24 23
0.1821138041337162 0.0696901682031008 1.2198745777899875 44 53 48
0.9356802073472763 -0.1389412719305174 1.4856852510758241 193 202 199
0.9485343129870188 -0.1353618731476100 1.4737291581727827 162 172 173
0.1345357290763504 0.0309536243490474 1.2530463653135118 69 80 76
0.1527660911554316 0.0708371195147206 1.2280220023889294 79 82 87
-0.1340067696713566 0.2024819292000002 1.1014187398291144 104 49 0
0.7707514580869602 -0.1547063865790998 1.6051072110493816 101 73 70
0.9459315748094377 -0.1384946723645898 1.4854401564253401 65 64 62
0.7646126891035226 -0.1260324840346442 1.5438775968117620 167 142 146
-0.2028733907001686 0.1761767793312615 1.1463079300282970 125 68 23
0.2760587641560813 0.0862720752782473 1.1823866092558892 49 62 55
0.3067940058700017 0.2048398968672539 1.0174941866954514 167 164 171
-0.1284456500855986 -0.0533915996456032 1.0842262552976207 214 232 252
0.2990833319498207 0.2104244203754300 1.0148876622989829 150 89 45
0.1329694423077390 0.0649451026899587 1.2409176632405978 30 34 35
0.1618070248880991 0.0684964766922940 1.2329667026499922 30 34 35
0.5923809714988234 -0.3353081818529735 1.6603184183826853 249 247 252
0.2267711014616259 0.0785441828309728 1.2035049210701430 43 54 50
-0.0722802553894466 0.1400853603495810 1.0948406183734507 166 173 181
-0.0567706506633230 0.1382385612653189 1.0896116937646594 174 179 182
-0.0418812855289659 0.1371951120398238 1.0855755048024396 174 177 184
0.8911295818477689 -0.2335374234897677 1.6587320395038403 148 114 112
0.9472597042221629 -0.1770644762713791 1.5188998473299238 45 36 29
0.9335741850540217 -0.1617927436361851 1.5113552401493784 66 59 49
0.0027897686847417 0.1380090972180307 1.0760123965417383 171 178 186
-0.1306951500968253 -0.0450731977940066 1.0749133503826120 70 86 111
0.3146308264667583 0.2154684321098213 1.0187922124635258 148 87 42
0.2857161619295850 0.2173867449340295 1.0243680760914016 151 91 39
-0.0244440444922896 -0.1073619934368950 1.0207425202787581 92 102 91
-0.7412377328097248 -0.3940314404655010 1.7425298630602009 171 168 159
0.3343572472384748 -0.0702816039396448 1.0433418401531518 24 26 21
0.7602930866265121 -0.3025994699298236 1.9839399874102903 126 67 27
0.2746157458646316 -0.3025546354703245 1.9475619337945511 80 41 24
0.1169687932005136 0.0563309896814605 1.2549370860494427 72 84 72
0.0605756253891405 0.1402997702111769 1.0535090716093298 178 189 193
0.8966287883398372 -0.1638509533063569 1.5208553018692985 131 111 110
0.3103870471270193 0.0598487267970392 1.1885497085097729 46 56 48
0.9200830973964255 -0.0334586939013428 1.4506066625829095 35 26 19
-0.1073173774075517 -0.0699920304329630 1.0570151200695885 56 67 63
0.1226130642498966 0.0280201111204779 1.2707994724965932 59 68 65
0.0167677504635265 -0.0861645114341763 1.0176156433368662 7 7 7
-0.5010154594990992 -0.3842885972925298 1.8219652456090056 177 175 163
0.7749084640489331 -0.1114457266192691 1.5014595886685149 91 51 52
-0.2376253205860119 0.1784883428013948 1.1512394986846943 137 73 25
0.3657909289541436 0.1980835686553055 1.0191164345860582 138 79 49
0.8004397071827096 -0.0845395930475405 1.4598588704629307 142 123 125
0.2471777209738956 0.2262950335415298 1.0406857516995307 149 90 46
-0.6739034959049717 -0.4079283434970939 1.7651463497039521 171 169 157
0.3931799106719340 0.1014603032206327 1.0479240291949272 87 84 101
0.7581562423970580 -0.1569340875003410 1.6090372259904366 115 75 75
0.7520857929568421 -0.1568067939661382 1.6104697400208166 112 72 73
0.3416148009269195 -0.2736694032731025 1.8943830103705790 165 149 116
0.9578386815776251 -0.1982686072670719 1.5331042744526877 92 97 93
0.9453132132501051 -0.1862789467013926 1.5237900132690043 87 93 89
0.3636603652241381 -0.2807405541021052 1.9144124823192750 172 158 132
0.7201704366315251 -0.1286187895311668 1.5154409636930226 116 59 66
0.9676856530865803 -0.1297853652904548 1.4670445181031324 172 170 183
0.0364447428263978 -0.0237749448568217 0.9614110269102245 67 78 61
0.4015244831000636 0.0965791489199980 1.0632401920267380 142 132 143
0.9344734471456888 -0.1738683449904039 1.5150075829098486 196 195 200
0.7674284800893657 -0.1584881111905745 1.6114316225794982 172 155 148
0.7815672657782130 -0.1585788791019579 1.6035628787947134 106 46 58
0.7734748696903253 -0.1574636697934688 1.6046581668747546 160 139 138
0.9048892369220967 -0.1412289222052109 1.5105721970537536 94 84 85
0.7410373952790453 -0.1344119547308391 1.5695305463435976 110 52 67
0.5100757011234019 -0.3210084858399331 1.8787390203506122 149 134 105
0.7686018541459252 -0.1668895548263354 1.6255214135280243 123 44 63
0.7878595959982907 -0.1580752987322654 1.5746466276146929 86 50 52
0.9249858793328180 -0.1552435613132999 1.5018802619808738 37 26 20
-0.1117569108181913 -0.1895711845480725 1.8349545684133044 121 56 24
0.9237728452182172 -0.1416430491132580 1.4992392392906535 99 89 97
0.7351262120893457 -0.1286321675058699 1.5553782834502359 159 160 155
0.8155463396287544 -0.1636073694778909 1.5631417144943902 109 79 89
-0.1117736373835215 -0.0891234148960249 1.1666762594100168 97 102 105
-0.1744587858692008 -0.0360466463237209 1.0987154104350505 122 138 154
0.1359402542537237 0.0440201953569525 1.2580691733842153 26 32 28
-0.1173054443500315 0.1406174263357385 1.1020068697035823 190 194 206
0.0178707232990739 0.1343502461745988 1.0640192844116156 172 181 186
0.7984509025501093 -0.1677394616095885 1.6371005984372033 108 45 56
0.2945143050602381 -0.2755975636485100 1.9114415489324132 105 50 20
0.8473858677031191 -0.1457138914483633 1.5291515306795593 136 107 103
-0.1098645415789221 -0.2168669395715622 1.9000877067689530 110 47 12
0.8200681250384385 -0.1790644444046401 1.5981717255475745 146 130 133
-0.1754482419519462 -0.1858171718189500 1.8548989544263284 117 48 15
-0.1372261423702695 -0.0786620004906410 1.1908886174764188 193 205 221
-0.1976223756571039 0.1810893527298633 1.1459641275136816 144 80 36
-0.1314388002520531 -0.0457727954320437 1.0709281669508239 83 97 123
0.8616336390785714 -0.1263942407593832 1.4950959885122626 49 27 29
-0.4100396224957006 0.1426588188319353 1.2231809138845222 126 69 42
0.5994500986117699 -0.3296401271741684 1.6568948512865485 105 58 68
-0.2098619721471657 0.0428995294047036 1.1187773549823143 96 108 98
0.9372539352153173 -0.1360891558948154 1.5028986477795565 64 59 55
0.7670406673523421 -0.1555529710280152 1.5966190468119756 87 59 58
-0.1242630092188281 -0.0666898115906550 1.3310444034514235 155 139 139
-0.0414061676072699 -0.0641283621366204 1.0163294901661335 50 65 84
-0.1334059027472666 0.2028195326495350 1.1261945147471342 105 54 0
1.0000455254658498 -0.2352707610046350 1.5644383459727003 21 7 7
0.9665354411655376 -0.2090584759538734 1.5372873081384382 78 74 71
0.9524778308632832 -0.2075063946171555 1.5165534896673658 35 34 30
-0.1374814464158277 0.2151835169321767 1.0951109607391147 107 45 0
-0.1423067477826113 0.2357351351653702 1.0983283272623792 119 57 0
-0.1348317253387449 0.2324334648391805 1.0726496219034687 115 54 0
-0.1257141455310885 0.2385479377760418 1.0619890317668432 108 58 0
-0.1162626889676637 0.2444333472070624 1.0509518095333301 108 46 0
-0.0956596959374111 0.2532243561525231 1.0226536042040617 115 55 0
0.2944707427042282 0.2122318099506857 1.0296169789716947 173 173 175
-0.1006297339315144 -0.0451236787737883 1.0392238523295203 71 88 80
0.7444918535237502 -0.1423660991004318 1.5680444976545811 165 152 161
0.9629458439254103 -0.1366992209245045 1.4768374066548513 84 71 63
0.9691892540220449 -0.1379225189571154 1.4732440602962797 82 70 74
-0.1568464414730052 -0.0628853534859852 1.2085889558649521 96 108 96
-0.0611826595749437 -0.1097497976639262 1.1071848636939785 122 127 123
-0.0273981123000614 -0.0557091557218972 1.0042412504738973 60 71 63
-0.1325667320027479 0.1389299948327384 1.1017574283453959 180 193 201
0.7735320658949421 -0.0519593031659817 1.4773355015192715 44 35 30
0.9208460534538788 -0.1923685475369321 1.5502436640159969 133 121 121
0.0275376986283734 -0.0281232512694885 0.9892189509319227 108 123 104
-0.3712975009226382 0.1513864915596141 1.1957394724130939 144 81 37
0.0048018353769370 -0.0851513474399110 1.0495255788314553 64 66 63
0.9632547475693954 -0.1343969596814102 1.4996182995666054 83 67 67
-0.0872146149646711 0.2693031528542973 1.0236793979897065 117 65 8
-0.0720283007259691 -0.1026957670599056 1.1150839495157578 128 139 133
0.9908929170710413 -0.1220440637574985 1.4624640838388401 132 138 134
0.3340824322602160 0.1009321905279826 1.1436613660624673 34 52 54
0.4054453466619176 0.1175882515962042 1.0563837912265703 69 43 26
-0.0895568593334606 -0.0660166878542588 1.0489558975084516 225 244 255
-0.1642504855098078 0.1409679185998518 1.1106710121330379 190 200 212
1.0206049778772044 -0.2671887028324386 1.6391510513450165 155 142 149
-0.2656616767600458 0.1673696239111884 1.1511628477473854 124 94 96
-0.0019469722563020 0.0377746634073173 -0.0136395066178710 0 255 0
0.0100242263682937 -0.0455533255924823 -0.0238800797941970 0 255 0
0.0146598903075222 -0.0971951748648425 -0.0095574765930225 0 255 0
0.0286727249039300 -0.1247325838346651 -0.0039840553133693 0 255 0
0.0282859262063360 -0.1611753226740129 -0.0016986765694192 0 255 0
0.0294966513063293 -0.3542760853209383 0.0062676110481248 0 255 0
0.0270153610039640 -0.4252043116271181 0.0094567750999080 0 255 0
0.0241180732111288 -0.5044330456367871 0.0083991142687944 0 255 0
0.0188732276114105 -0.5704742921732348 0.0148274770149360 0 255 0
0.0046385319108477 -0.6478381806839179 0.0101398435169491 0 255 0
0.0112695020009029 -0.7574020072609771 0.0154651712320227 0 255 0
