ply
format ascii 1.0
element vertex 537
property double x
property double y
property double z
property uchar red
property uchar green
property uchar blue
end_header
0.6806111963421754 0.0916427982370720 1.1897173964779655 103 103 103
0.6278070661172667 0.2785784041738021 1.0550978199844876 94 94 94
0.3524196418150544 -0.0098952199736675 1.1549559425940954 130 130 130
0.3656267114320311 0.0047096479253441 1.1511166109458901 131 131 131
0.6421754359290630 0.0440050369988139 1.2276803167800130 122 122 122
0.3962308859293454 0.0453496872119997 1.1319016698614062 136 136 136
0.6812496027981859 0.0960195952623343 1.1858815778310134 96 96 96
0.6938171919488421 0.0985773278947335 1.1770153960247689 171 171 171
0.6846132305912543 0.0696174871709101 1.2522375753847619 117 117 117
0.6822910727192822 0.0741770323271558 1.2468124188099270 164 164 164
0.6135001338223346 -0.2065932976495122 1.4414499385824247 110 110 110
0.6557075772382875 0.0448923215420748 1.2317359558918228 173 173 173
0.6610008928660032 0.0545734775159406 1.2315369072044757 164 164 164
0.6677579194655673 0.1001584386167673 1.1807202049561225 106 106 106
0.6665627601183450 0.1067216180543120 1.1613725208486712 113 113 113
0.6699467097988929 0.0744956197516723 1.2351007727487264 108 108 108
0.6049931993044636 0.2498997953498537 1.0536212438852313 104 104 104
0.6752828076370402 0.0808389556968287 1.1851222863281827 183 183 183
0.4211813268520466 0.0832184373628198 1.1291103453215821 109 109 109
0.6731970126476716 0.0548983222797695 1.2386057710109204 85 85 85
0.6611814802247130 0.0628096199333639 1.2279959465374231 106 106 106
0.5959131318049575 0.2429834335565867 1.0462072730874052 101 101 101
0.5967137364833408 0.2518255284086268 1.0425424969862844 150 150 150
0.6779295361405583 0.0461847404260865 1.2490289731775577 160 160 160
0.6331595083137098 0.2873985866436709 1.0359159163325586 170 170 170
0.0392474821190218 -0.1979186874873078 0.8348358227795787 32 32 32
0.5718634967823691 0.2417100112613125 1.0620250758608090 134 134 134
0.2327218082440487 -0.1989571851707845 0.9547434809573867 107 107 107
0.6060448830923920 0.2573065453401070 1.0465960372781438 91 91 91
0.6388586159381178 0.2842464931369539 1.0502488012923676 106 106 106
0.4022409192782854 0.0537516752136940 1.1335244707727552 112 112 112
0.3053232779684361 -0.2110293645087197 1.0268670180131210 36 36 36
0.4140009330938153 0.0702477948999428 1.1349245309173519 135 135 135
0.5888167661416726 -0.2185081588013678 1.4186385311034693 90 90 90
0.6793762775734248 0.1011418526732608 1.1730577043892734 101 101 101
0.6627199498094749 0.1077130803734633 1.1686882927695328 210 210 210
0.6332954829764105 -0.1288253005346764 1.4373926264485659 157 157 157
0.6846138080636496 0.1056977170906318 1.1390568853911249 92 92 92
0.4980033647978628 0.1610724976576123 1.1099624593060424 130 130 130
0.6731795198701792 0.0140293254895276 1.3217509387324946 165 165 165
0.5126478599451260 0.1990491979608470 1.0937476588520010 159 159 159
0.5196293309757839 0.2083192637347426 1.0994096093400905 78 78 78
0.5375267233446863 0.2086970985297741 1.0919441995817851 152 152 152
0.5160943461916596 0.2159962377127115 1.0974685952422762 134 134 134
0.6895277436862998 0.0283118170535629 1.3266470551309721 150 150 150
0.5614568374113678 0.2385561534905690 1.0782273588707754 142 142 142
0.4163347387630147 0.0580876362620755 1.1374235389251817 198 198 198
0.4857911842257813 0.1625865748092515 1.1067356707909988 98 98 98
0.4486489898006761 0.1178547014241737 1.1201862696798921 93 93 93
0.4646727621963703 0.1720522032583996 1.1080751419707651 80 80 80
0.4638373984755015 0.1210245852196903 1.1178456281783709 162 162 162
0.5622577572239533 0.1267880041651948 1.1531384075389073 202 202 202
-0.3314657065754880 0.1948554046665542 1.0315927852020959 83 83 83
0.4635317178395101 0.1362600290706968 1.1184370386169329 94 94 94
0.5617503198906948 0.2156597462118510 1.0842137758092034 89 89 89
0.5441172268538350 0.1351922235150068 1.1165596988171829 144 144 144
0.4429552335220452 0.0941785004838437 1.1280189227529325 179 179 179
0.4763091888921789 0.1518467256287522 1.1104529964101808 91 91 91
0.6018602523813362 0.2889895821873827 1.0478986866529909 87 87 87
0.4686780130706160 0.1610176391570437 1.1069885987619823 146 146 146
0.5096003300373331 0.1722329429041045 1.1112899005030488 174 174 174
0.4798144928553377 0.2097557328103498 1.1057055900629862 124 124 124
0.5495780666936794 0.2079068677757281 1.0894611669050049 91 91 91
0.1925715132901522 -0.1841278626608190 0.8932491069016117 40 40 40
0.4780548791779861 -0.2013362731284276 1.4154956061939172 188 188 188
0.5923325471906069 0.2376018830034819 1.0501298443229841 95 95 95
0.5391356897564257 0.2705542073443013 1.0957856502677399 75 75 75
0.4494120160162194 0.1028295029089585 1.1233771607265137 178 178 178
0.4395262362369697 0.1066867939521578 1.1249626214909729 93 93 93
0.5348046901053680 0.2189861635262282 1.0874747577213402 153 153 153
0.5727115378100798 -0.1481304991120598 1.4088374139140549 97 97 97
0.5837124565501619 0.2497378166361157 1.0537390192061042 130 130 130
0.2938834592446462 -0.0546274452702784 0.9546496851379096 93 93 93
0.3986549250508528 0.0700168494672243 1.1325647959012322 190 190 190
-0.0764996310322075 -0.1465090002570669 0.8436522265947158 22 22 22
0.6591887925278642 0.0685152409048559 1.2244736744465117 133 133 133
0.7386355446909577 0.0755443716691860 1.3040416711686031 74 74 74
0.6166514467592448 0.0937862918436763 1.1653240613925795 143 143 143
0.4282962640118682 0.1175554084134233 1.1183520004347569 166 166 166
0.4911090783059343 0.1397110357146931 1.1069682255466393 184 184 184
0.4540688913849962 0.1579579901205110 1.1147667898693350 136 136 136
0.4081081243859025 0.2105129560756731 1.0711864143593972 61 61 61
0.5009413973914851 0.2221292362976008 1.1154758993519831 50 50 50
0.5859298754500687 0.2253063515814902 1.0544523082479842 104 104 104
0.4848481812231808 0.1783845666311343 1.1108555304180883 149 149 149
0.6247711665973129 -0.1559074582165856 1.4551021493684573 157 157 157
0.3620629709194711 0.0572348666723411 1.1238150179558155 35 35 35
0.5313610770953572 0.1993944393286438 1.0924293613215168 62 62 62
0.7373065129353417 0.0835461123967946 1.2583539491042306 159 159 159
-0.2725460695027169 0.1974935344461754 0.9824831936321153 3 3 3
0.5495408628088381 0.1085500173016055 1.1304839745405526 155 155 155
0.5112792353777643 0.1200211562113829 1.1215196105582388 122 122 122
0.5383159922655617 0.2362452540555013 1.0840483648288473 42 42 42
0.6072993073854676 0.2375053124655117 1.0464549333931983 183 183 183
0.4138255623866656 0.1383551206559180 1.1116708793377359 44 44 44
0.5673936827504104 0.2547211277359527 1.0618377792563751 48 48 48
0.5282068960207007 0.1831769067379289 1.0942833551344060 174 174 174
0.3546202158633877 0.1956714753972196 1.0934996848184320 61 61 61
0.4986420263998452 0.1982193967961684 1.1043094406460270 156 156 156
-0.2879309449747711 0.1917962600021080 0.9706404143062837 102 102 102
0.6049228277428192 0.2066103694877820 1.0530950222139499 211 211 211
0.6008153995975601 0.2730021207851777 1.0457951601204314 172 172 172
0.6318935309883883 0.2937950299071170 1.0365908752714008 168 168 168
0.3007040103231990 -0.1923443121536879 1.0452656917111109 24 24 24
0.4984318802983250 0.2355840671264614 1.0379614623468096 40 40 40
0.6297667611699684 0.0607932378628694 1.2271704576727611 179 179 179
0.0924661782970319 0.2821122010883229 0.8753056660733118 65 65 65
0.2650873663052853 -0.0299841208180166 0.9336867356298376 46 46 46
0.5132011623962833 0.0877867575403639 1.1319326907049942 209 209 209
0.2335234067630421 0.1549230112805863 0.9641046440156854 63 63 63
0.2837167914930859 0.1880734171420747 1.0270420511241265 4 4 4
0.5654698143959511 0.2732450306587085 1.0414140437988570 32 32 32
0.4155870256047354 0.1763522359182791 1.1184626877264563 7 7 7
0.6002281329383075 -0.2952610494974507 1.4142030686556037 95 95 95
0.6610402622621661 0.0376056306487854 1.2523682755253158 87 87 87
0.3931623807923009 0.0405818114989220 1.1356281283006762 137 137 137
0.4972393240714972 0.1729470073452250 1.1110633827595520 94 94 94
0.5163353660369323 0.1917275127680277 1.1020798516520234 85 85 85
0.7120232575354499 0.0648258661265635 1.2913898698400321 138 138 138
0.6466011113933038 0.0493285819824696 1.2151777379617092 127 127 127
0.6787174675594893 0.0997783697449743 1.1790922397317807 151 151 151
0.6883344473833374 0.0920072583533702 1.1838245817360733 126 126 126
0.4066196838646539 0.0619483841785295 1.1347234694863979 135 135 135
0.6506329378589311 0.0722921441214518 1.2164962476505576 110 110 110
0.6704567915707381 0.0475226881840713 1.2479009607641298 98 98 98
0.7074568933501945 0.0513900621098813 1.2843189028741369 146 146 146
0.6177090849799128 0.1365186315887360 1.1210712014013440 145 145 145
0.3882558164816681 0.0315433056880724 1.1407254474287731 130 130 130
0.4525486192646260 0.1259530780939230 1.1164294803973323 86 86 86
0.2651916272975214 -0.1676822722703379 0.9492075760583469 83 83 83
0.5988750657055026 0.1439097359052236 1.1046711261510069 151 151 151
0.5957353674957725 0.1518524434155063 1.1027590101439795 184 184 184
0.6873037704103742 0.0626816899885296 1.2576312076593867 157 157 157
0.5468952439381174 0.1946868858684909 1.0901019664199521 156 156 156
0.3829404177710449 0.0509677369620833 1.1293881786508275 193 193 193
0.6438913204687008 0.1127039138056411 1.1666360335559736 205 205 205
0.4073639555026732 0.0766582515814690 1.0891591795977067 127 127 127
0.0727333723523031 -0.2158650738901519 0.8702647753984040 108 108 108
0.6620363755197735 0.0499196014417788 1.2564293131724023 122 122 122
0.6689203424628606 0.1003125120260147 1.1716642659208205 167 167 167
0.3703529085455882 0.0104242507907940 1.1433083652852152 118 118 118
0.4865242107194468 0.1247448111321780 1.1175694461245487 121 121 121
0.2607924923099182 -0.2159277996317918 0.9987497746847416 44 44 44
0.2444017603052661 -0.2150099482175951 0.9973608042144916 49 49 49
0.3870862858805796 0.0879169148803496 1.1178650946530424 60 60 60
0.6880577379429850 0.0935467483016656 1.1917022295843394 167 167 167
0.6713521144256354 0.0809554794752482 1.2227030506998111 185 185 185
0.8136447624009560 0.0984029652011021 1.4494872032380821 174 174 174
0.5090821081920509 0.2339830031682786 1.1043684571175709 96 96 96
0.6566966859083569 0.0822242284393025 1.2124355719561575 183 183 183
-0.3053288430569765 0.2129105933493375 0.9724832353548695 118 118 118
0.3013357467915939 -0.0935746439240617 0.9789666113969085 91 91 91
0.5806452406869193 0.0462969286952595 1.1921749584599344 147 147 147
0.0905205923733071 0.2799374315595016 0.8698543502710072 62 62 62
0.5951056762595877 0.2176177674628125 1.0527647252948749 111 111 111
0.5651114905734561 -0.1294606496425642 1.3658313587955315 157 157 157
0.6305886888215945 0.0031556815439023 1.2538109978568075 175 175 175
0.4371750066912030 -0.1226446662197330 1.3463289857253580 145 145 145
0.2729842580150796 -0.0142566446474971 0.9494121638998591 31 31 31
0.6599573302670013 0.0714438651104436 1.2289405998717109 179 179 179
0.6302076372460329 -0.2078592275617424 1.4602509172261273 150 150 150
0.5832479541911441 -0.2160777554979332 1.4361108110070961 201 201 201
0.6360934357969178 0.2753310814620964 1.0463247204582393 178 178 178
0.2692821196436703 0.0481776689587969 0.8879870938077999 79 79 79
0.6204082234581910 0.2615481113771326 1.0546847343511985 179 179 179
0.6750687901838534 0.0999823756980289 1.1708629570470424 160 160 160
0.5541248298119725 0.2283789686086353 1.0827699975380385 149 149 149
0.5862612734415364 0.2312394088514902 1.0564146792245168 74 74 74
0.6320091054881346 0.2803184524581949 1.0516422958434779 89 89 89
0.6178780301775281 0.2506930302315712 1.0467905040913708 106 106 106
0.4551016260088069 -0.1838069174117651 1.3899031921047691 170 170 170
0.6363839897269685 0.2968114843306537 1.0466165037385746 163 163 163
0.3218806188638181 -0.0845359481719440 1.0131585462256818 208 208 208
0.3625595792700885 -0.0038221426681920 1.1516415178612087 157 157 157
0.2812439165936821 -0.1606404527065427 0.9981069231172625 56 56 56
0.6205093361004254 -0.2247045481328911 1.4390853663260634 70 70 70
0.6063565958430952 0.1457577070468216 1.1029080402831060 198 198 198
0.3527089112824203 -0.0101145414009241 1.1567446740128153 119 119 119
0.1421986582139590 -0.1939822332992511 0.8914616695736883 42 42 42
0.6222613545417243 0.2725623687495513 1.0519758726042703 102 102 102
0.4900485294185371 -0.1732152489424333 1.4016627011516716 98 98 98
0.4200332718170995 -0.1494508816078505 1.3593244949283054 159 159 159
0.3620881667308035 0.2057693833019075 1.0946432708274174 49 49 49
0.4897870671009134 0.1726287854889720 1.1078653783100068 140 140 140
0.5494535146364504 0.1835169608918563 1.0945870296582692 107 107 107
0.4981943981833359 0.2414095330893654 1.1118971404924034 82 82 82
0.4824004624903546 0.2525883330222598 1.0395172212985453 57 57 57
0.4719975337550831 0.2352267105102506 1.0531603121853401 77 77 77
0.4019656268591587 -0.1244185582105126 1.3686943228436463 145 145 145
0.4410064733442324 0.2226755013283650 1.0633177823392219 69 69 69
0.3127099564194318 0.0316846113331535 1.0494496101094937 44 44 44
0.4998043068216146 0.1679421801411293 1.1093378778150573 124 124 124
0.5914510261475008 -0.2325505201080606 1.4615824041751762 144 144 144
0.5437404386779763 0.1885309395475322 1.0976011716252592 96 96 96
0.5163388880914944 0.2239941406509021 1.1051137575456120 70 70 70
0.4415146240373228 0.1370095024613885 1.1225607873928949 163 163 163
0.5978127414148059 0.1392036887793988 1.1126375514463673 216 216 216
0.3778534431776811 -0.1506945340022116 1.3938200836040413 99 99 99
0.4050122195333778 -0.1519337446436754 1.3842730930215736 180 180 180
0.3918339050603482 -0.1440950024065749 1.3914811911728526 138 138 138
0.2727068060835569 0.0301158498213850 0.9122565894306904 70 70 70
0.5872571574817717 0.1451119252167543 1.1100134351865987 153 153 153
-0.3372644407804979 0.1866155563798956 0.9940073299609685 82 82 82
0.4540437489764954 0.1264106792681935 1.1189989684714015 92 92 92
0.4911619131757460 0.1677360607298418 1.1072692342715686 92 92 92
0.2867954113875817 -0.0604644678708226 0.9291782502328014 22 22 22
0.5103338868486621 0.1455367221454162 1.1074499621908203 140 140 140
-0.2238892496748189 0.2679317933266548 0.8627807841270003 96 96 96
0.1982017037432664 0.2485655926713893 0.9315823724797382 54 54 54
0.4418458809886468 0.0938204900864385 1.1190451283916258 191 191 191
0.4976523929803844 0.2107658814436188 1.0902337214923372 18 18 18
-0.2898286618163320 0.2330242453935697 0.9310918134687963 101 101 101
0.4978964716828554 0.1298363244326800 1.1192616245451181 184 184 184
0.2949505102509408 -0.1499554284764371 1.0118038307834034 76 76 76
0.3993857875996585 -0.1654857869200125 1.4182985260398429 103 103 103
0.4630985090840317 0.1364186928696780 1.1160804313382628 79 79 79
-0.3444124038944058 0.1924258596753067 0.9902952439962720 109 109 109
-0.3242199794960774 0.2012904452593323 0.9865012071372193 60 60 60
0.2557430810422358 -0.0201527113519789 0.9093481136668077 11 11 11
-0.2240183141185491 0.2731001546738935 0.8915625814923044 13 13 13
0.5796916578098370 0.2693105308344180 1.0495710878578457 64 64 64
-0.2893226490320883 0.2224230870890493 0.9423760581427986 104 104 104
-0.2810867210664378 0.2010771683494055 0.9915238045794554 71 71 71
0.4883862264462165 0.2452355908665972 1.1171717174897788 81 81 81
0.4655823066148759 0.2451691106580790 1.0310392367654662 23 23 23
0.0226859781712839 -0.2253415226910139 0.8417378455417036 67 67 67
-0.2361333958064810 0.2645338424873768 0.8784192399049959 94 94 94
-0.2984912047762224 0.2187676498228525 0.9364238412808824 55 55 55
0.4608631634550071 0.2456638791896965 1.0117042508989456 67 67 67
0.3300339558496109 -0.1226102688543100 1.3949205136070042 84 84 84
0.3524301324659536 -0.1144963363980933 1.3813683455991841 165 165 165
0.2720407759747001 0.0291512454548872 0.8984712139994011 66 66 66
-0.2607911707720038 0.2311384946562793 0.9895395481458902 42 42 42
0.2980419165556506 -0.0423985493425675 0.9955640652748659 74 74 74
-0.3158580548044207 0.1943339574381958 0.9228730749473751 117 117 117
0.5301125260567988 -0.2187662964541370 1.4339833869899401 207 207 207
-0.2493269814374355 0.1923221772105843 0.8759467944900851 113 113 113
0.4186780214340013 -0.2045403684957139 1.3237313928045606 104 104 104
0.3191442781056136 -0.0416857160635838 1.1769647831057419 115 115 115
0.3045862868917696 -0.0534546603584438 1.1880315744116492 131 131 131
0.5904296494403392 0.2436728514591903 1.0490759456714114 169 169 169
0.4822467595751392 0.2519772083570971 1.0490418738436109 76 76 76
0.6404562732918117 0.2461964161210106 1.0508530905051519 182 182 182
0.4835288711587986 0.1783606678581821 1.1039919839500212 128 128 128
0.3576683025867895 -0.1538790595524091 1.4158303156539671 100 100 100
0.6241599740035142 0.1714458865522069 1.1021561489770177 177 177 177
0.2340197884914267 0.1764074512347834 0.9646920692079908 42 42 42
0.6454768942475121 0.0436899715634801 1.2303293696254989 87 87 87
0.2721212468743553 -0.0251446148661192 1.1657809412889715 21 21 21
0.6479534741617091 0.2324376969648046 1.0536307277835126 97 97 97
-0.2060345993505827 0.2265316908533072 0.7726457354867863 53 53 53
0.6597903949122494 0.2222389937283031 1.0551582183304580 105 105 105
-0.2245971790063979 0.2754154211229690 0.8911753812011626 4 4 4
0.5546184279025614 0.2288710578810709 1.0805700605592026 126 126 126
0.2099125745697452 0.0981405578255318 0.9173292053869229 10 10 10
-0.1442999428879705 0.2405569335370213 0.8727194456546030 13 13 13
0.6664283219681395 0.0787980163737100 1.1890522711361597 80 80 80
0.6649316331390681 0.0400585124635101 1.2451084093917875 134 134 134
0.6575101164267800 0.0381841909785782 1.2439438450234466 46 46 46
0.6571434787223855 0.0452373782523282 1.2492280845623682 156 156 156
0.6722451133289328 0.0757699547968569 1.2352643758692947 62 62 62
0.6397859992317336 0.0336928049623392 1.2349264456089051 94 94 94
0.6693787247419714 0.1036705872747350 1.1691430215714094 100 100 100
0.4986878111980450 0.1523351273955889 1.1099619121253403 99 99 99
-0.6015856883671172 0.1765336352571268 0.7071589327560681 55 55 55
0.6316919527652380 -0.1324644617045228 1.4367799272305330 138 138 138
0.5726465000409439 -0.2130995979071721 1.4441096490747307 162 162 162
0.6075807531437271 0.1533861139067458 1.1014916445968757 118 118 118
0.2465617271777622 -0.0037113523812138 0.8874358787451366 50 50 50
0.6816647051426574 0.1048574391740366 1.1598183835336586 147 147 147
0.6652273073615549 0.0997973611004729 1.1757799702986933 91 91 91
0.6664681854512812 0.0522678250073954 1.2463444895184870 131 131 131
0.6857194548426736 0.0908336148843023 1.1864701658301371 132 132 132
0.6889644065765375 0.0987629702906501 1.1626549307842553 119 119 119
0.6913395568643635 0.1117908791286974 1.1565979288226003 142 142 142
0.4325569463249593 0.0979716238835416 1.1273216008051496 109 109 109
0.5156416395240098 0.2167362416009214 1.1016633098498365 112 112 112
0.4885641515834384 0.2460679460680078 1.1209744720410812 53 53 53
0.6563281529925595 0.0629789455104757 1.2237450254212570 79 79 79
0.6956802249578492 0.1071313344117499 1.1581634067017119 46 46 46
0.6750418598752341 0.0563572447405715 1.2439959065798205 64 64 64
-0.1493905708831820 0.3298154198281050 0.7881162919935402 81 81 81
-0.2236241564587344 0.2975996844611252 0.8695505463657682 34 34 34
0.5616427204818050 0.2046060652202397 1.0885515484857571 155 155 155
0.6066996162394472 0.2571655140682372 1.0474724991659381 86 86 86
0.5303894428263985 -0.2308457015245423 1.4257381129889051 158 158 158
0.2756649591098829 -0.0751273171304518 1.1958165611958846 54 54 54
0.6680365342602891 0.0615011310243733 1.2412101162706295 78 78 78
0.4959613244295961 0.1934081684841671 1.1098552271597903 136 136 136
0.6924969193764285 0.0756077320229713 1.2556345593763065 74 74 74
0.6750216364719797 0.0971253314593074 1.1802735588357987 79 79 79
0.7085436380160599 0.0878131334657446 1.1673152638188797 106 106 106
0.7217394640282723 0.0923159760258150 1.1640039655182597 101 101 101
0.7103344370600692 0.0587630217169797 1.2859454071392722 79 79 79
0.6700135490114257 0.1009079898448694 1.1745482610615543 143 143 143
0.6709874165793591 0.0698200366752527 1.2368171811105333 126 126 126
0.6654856609858302 0.0721023593095278 1.2319639362030026 70 70 70
0.6887215002831594 0.0471997775582242 1.2721092067187634 123 123 123
0.7030437965187893 0.0484610311443999 1.3307540494125878 87 87 87
0.7018931687943836 0.0815031545548142 1.2560217524049391 79 79 79
0.6965922314132831 0.0760543390956555 1.2587444278036433 84 84 84
0.6816374640836619 0.0956417730196181 1.1803485072311890 87 87 87
0.7072126103450520 0.0921782834302403 1.1719924237306054 151 151 151
0.7052492100311923 0.0948076576559077 1.1650479899828390 73 73 73
0.6969507468972184 0.1021776047603502 1.1642948268118938 130 130 130
0.6883296905268546 0.1069342033295079 1.1560228966854709 87 87 87
0.7008078348642733 0.1039552787288703 1.1599183648575659 55 55 55
0.6300197505730036 -0.2287821334568835 1.4531561141301115 65 65 65
0.6669477998411231 0.0442944308493420 1.2402027569284420 55 55 55
0.6956281412390036 0.0475940426546753 1.2877809876461859 42 42 42
0.6994372816183257 0.0965774743871880 1.1657818222075664 132 132 132
0.6970737576820581 0.0587433346518713 1.2756054804753392 141 141 141
0.6992699368824886 0.0399468045821199 1.3354322659950397 60 60 60
0.6852744641730719 0.0530260779656533 1.2569473476173283 69 69 69
0.7312984669509420 0.1617977643128154 1.1115609790087899 139 139 139
0.6655265553169072 -0.0739607448862129 1.4708177544125987 125 125 125
0.6920264069230911 0.0633981187836478 1.2601317993876688 133 133 133
-0.3575456731661441 0.1741425532826634 0.9317110468502598 3 3 3
0.7275174469186284 0.0991740070820774 1.1724524345847462 102 102 102
0.6682502710211469 0.0407857442316199 1.2471732462013587 82 82 82
0.6887898909247492 0.0727877434612765 1.2546186272918043 84 84 84
0.6664529392130200 0.0779384378126500 1.2240366237416989 103 103 103
0.6853095947980173 0.1007595696153300 1.1581944486600819 91 91 91
0.7337655508604569 0.1090690161757901 1.1609562970145146 109 109 109
0.7392875602113170 0.1114974031766821 1.1570087311197854 94 94 94
0.6997707997069550 0.0642025551305611 1.2624250717393897 81 81 81
0.6783396487700424 0.0751790455813577 1.2393383017197637 135 135 135
0.6689876280034686 0.0783818812445383 1.1968998874543793 147 147 147
0.6805952898782955 0.0988668626504040 1.1703368804275252 146 146 146
0.6943287340932781 0.0966807886313743 1.1657503970990728 64 64 64
0.6898278935742268 0.1026895150050771 1.1599178273807857 134 134 134
0.6505232518999264 0.0485639626323855 1.2319501867357352 90 90 90
0.6628734557534849 0.0482553967149396 1.2314789904470782 72 72 72
0.6712439537270741 0.0638045560838333 1.2413749222006649 65 65 65
0.6681150293413494 0.0767275312564074 1.2301120873383529 126 126 126
0.6625973215959696 0.0770094972847094 1.1878387108614594 151 151 151
0.7057828435284867 0.0742403657992861 1.2767563613582018 92 92 92
0.7045458027151885 0.0493719933544212 1.2851853713048091 137 137 137
0.7043303127262107 0.0573198443208737 1.2803019756761567 91 91 91
0.6778540555688869 0.0819643217286819 1.1975826382048049 144 144 144
0.7289199573017606 0.1027503206314392 1.1676432661941920 134 134 134
0.6985928638366296 0.0827471664737821 1.1943941687876707 150 150 150
0.5767249401259908 0.0470330142355496 1.2026134583216317 119 119 119
0.4206776211431589 0.0844937144086154 1.1278964646823781 126 126 126
0.6702510870238024 0.0650052003824912 1.2311876681436900 65 65 65
0.7014614370851857 0.0796511564223530 1.2295183741060511 92 92 92
0.6877408606772256 0.0805681331905899 1.1945104612380348 104 104 104
0.6882343556248175 0.0806071981268506 1.2473929853257435 97 97 97
0.7176093581401827 0.0947094417179476 1.1683474243670515 145 145 145
0.6773837339240442 0.0865462626996720 1.1803870467516193 90 90 90
0.6770029387457573 0.1015267666407395 1.1530313254608155 83 83 83
0.6641710963828519 0.0755066096338828 1.1968058194699063 90 90 90
0.6875325670292727 0.0456980321309058 1.2599023335594466 127 127 127
0.6561949310711682 -0.1210576807317471 1.4899848160602762 101 101 101
0.7107812121757869 0.0646532242711009 1.2680019581825537 138 138 138
0.7140798858144429 0.0786397839857697 1.2902040117953855 77 77 77
0.2666008239890623 -0.0501353439773351 1.2032112430920305 124 124 124
0.7416102579246876 0.0866550179232769 1.2141342877224310 38 38 38
0.5806455486593795 0.2568591067210425 1.0678484462273257 127 127 127
0.5310257985937941 -0.2306133311834057 1.4240124573562378 157 157 157
0.5994789501778376 0.2060942333447416 1.0557463414615833 147 147 147
0.7563681399649483 0.0945774310865259 1.2118813531054669 140 140 140
0.7452172446785023 0.0813177260388040 1.2345777803721552 61 61 61
0.7424014103883780 0.1070463283260156 1.1621784244840410 105 105 105
0.7590656580796468 0.0866783357869255 1.2337254016413948 91 91 91
0.7559576377030895 0.1076852326800859 1.1949027242327834 62 62 62
0.7531512811088027 0.1170807681807711 1.1695612517559779 84 84 84
0.7584978406631936 0.0907132733240611 1.2288780054694113 141 141 141
0.7477440454537222 0.1074499186846206 1.1832490033946996 143 143 143
0.6572159614992601 0.0624969529899994 1.2195986672622778 70 70 70
0.6801966800533294 0.0553483056820677 1.2484566186299269 70 70 70
0.7482455178071516 0.0875422428253985 1.2231453148840747 137 137 137
0.7533703675571000 0.1087622602673338 1.1892946691064272 48 48 48
0.7612164468067331 0.1180196523368954 1.1683883206307433 158 158 158
0.7451703018640825 0.0780663478198235 1.2689588473226665 146 146 146
0.7376930924236307 0.0775260414675599 1.2259492565719754 150 150 150
-0.0151498156127006 -0.1202272797258122 0.8488870033305239 6 6 6
-0.2929592895798346 0.2534642872699615 0.8935724441569982 81 81 81
0.4714077973311149 0.1534539833808554 1.1157379970633012 101 101 101
0.4423217159808672 0.1966660929124227 1.1147542020870005 2 2 2
0.6956627922967296 0.0468668734561735 1.2783560034740156 26 26 26
0.7661251839064835 0.0939154465981624 1.2293994212968407 47 47 47
0.6476117298069568 0.0517913453245984 1.2139254476347014 147 147 147
-0.0316916420877000 0.4230460292529704 0.6160948595851898 145 145 145
-0.0627881728608623 0.4400901646855847 0.5656313561860961 75 75 75
0.7162111980130047 0.0971527966498923 1.1630876054290709 54 54 54
-0.0189348886958533 0.4131690666147596 0.6307346177823272 43 43 43
0.7803102780633503 0.1167281882926329 1.1903445180440753 65 65 65
0.6499755454390657 0.0728683785746799 1.2191991081107898 46 46 46
-0.0284716414232313 0.4222396720432586 0.6103713267890165 34 34 34
0.0002930472005255 0.4129638037299068 0.6438430143734508 32 32 32
0.6868450115779873 0.0812151746170331 1.2500029061774716 80 80 80
-0.0177737682468663 0.4233054223469752 0.6210141995547446 110 110 110
-0.0301228805112474 0.4353653750103839 0.5817910974322594 30 30 30
0.6708335173179418 0.0701137904723774 1.2377093415599054 99 99 99
0.4983016596173532 0.1606893130880481 1.1093328091633063 112 112 112
0.7574774843326952 0.1007758835492494 1.2131815274868123 48 48 48
-0.0047139557375277 0.4087222715896133 0.6414544609923273 51 51 51
-0.0589555115334962 0.4449288790987095 0.5611923934094450 142 142 142
-0.0002073208842827 0.4033939113571707 0.6593871909692162 3 3 3
0.7750223130096445 0.1037568872573940 1.2130074385753993 113 113 113
-0.0258520771368268 0.4511355676557034 0.5810390630287813 140 140 140
0.6639057061664680 0.0518991037602784 1.2447758137353351 121 121 121
0.4291363538582296 0.1177693092807955 1.1192527634888552 126 126 126
0.4438524877644248 0.1379460735587676 1.1153339840741228 114 114 114
-0.1069533405546961 0.4047419381598345 0.6376838500675508 55 55 55
-0.0668289264758895 0.4087228641882605 0.6440976925963856 14 14 14
0.6592321394922623 0.0756122805451310 1.2236228153278277 135 135 135
-0.1160265374065449 0.4178179253102856 0.5837455009567248 83 83 83
-0.0145613878793885 0.4024094888610354 0.6503710063379853 111 111 111
-0.0485073837116933 0.4236266729559531 0.5930696910453133 151 151 151
0.6870633036324001 0.0429660241208880 1.2730781467464836 62 62 62
0.6668252325035984 0.0732836992387009 1.2352894334180926 37 37 37
0.6944659229721745 0.1022425483243871 1.1617893381148989 49 49 49
-0.0154090619377161 0.4151291002810542 0.6265041468051222 110 110 110
-0.0064183287460592 0.4183640914883738 0.6340452286461257 48 48 48
0.7400811869059820 0.0919261329290287 1.2057766030737285 57 57 57
0.7279048387126229 0.1000849282859217 1.1724576050706863 68 68 68
0.7523724990281145 0.0959042581588799 1.2123789408571923 71 71 71
0.7558880561001470 0.0957010376859293 1.2155229361615951 110 110 110
0.6381533570668627 0.0331950005735342 1.2381522194970176 60 60 60
0.6500326762442482 0.0487758611427673 1.2323374907579858 47 47 47
0.7741374314925652 0.1166523024272681 1.1881556504832083 80 80 80
0.6963961996823665 0.0498834874752456 1.2721805990536221 87 87 87
0.6699557732780151 0.0635759793473075 1.2444107044870873 44 44 44
0.6736085522827959 0.0804206479488377 1.2279511105930523 60 60 60
0.6722619068683122 0.0798966045389754 1.2363088447499644 112 112 112
0.6967168370093191 0.0761014102539653 1.2588468716636523 54 54 54
0.6647900177656836 0.1008301120776691 1.1745077779916324 55 55 55
0.6794917982849864 0.0962415198049393 1.1759447025763656 71 71 71
0.6944667131925891 0.0971052731372483 1.1661864879707045 51 51 51
0.7896299003469102 0.0895623200241703 1.2996533155174534 47 47 47
0.7378848418671169 0.1137833555508309 1.1656908726528978 79 79 79
0.7195503639216096 0.0942516313245565 1.1731244663140146 85 85 85
0.6869679387511540 0.1078969936210543 1.1587935564128482 66 66 66
0.7554442010027874 0.0824824413413387 1.2398222720020520 52 52 52
0.7233042420690488 0.1000037644804051 1.1654001888015846 74 74 74
0.7299716865978021 0.1036270012954036 1.1739408013947707 70 70 70
0.7285297052378368 0.1058515276264170 1.1656751187081615 71 71 71
0.7350548760234557 0.1068174979245897 1.1727221651679909 79 79 79
0.7323253159036172 0.1098555701302876 1.1652162690893941 76 76 76
-0.0077072375768585 0.4186567001424332 0.6262310099474173 25 25 25
0.7392893765634719 0.1103184144329985 1.1745925978464995 81 81 81
-0.0409589983748516 0.4327680099584632 0.5899588295920974 110 110 110
0.7426078136346502 0.1116832529074757 1.1753251190380332 82 82 82
-0.0451878192895197 0.4308827942150729 0.5856903049573504 32 32 32
0.6652258428854233 0.0379306583077157 1.2546810457549424 64 64 64
0.6591168156030286 0.0434710595562220 1.2403013121491229 117 117 117
0.7998510966909915 0.1179669658724384 1.3178080339867912 37 37 37
0.6636990679112781 0.0444850259916146 1.2445132650008610 36 36 36
0.6928737529273645 0.0477030043238380 1.3198723551534526 60 60 60
0.7197925461185604 0.0500486744538567 1.3242919820563002 65 65 65
0.6665686492306314 0.0770177247368772 1.2329239228645739 105 105 105
0.6765310916281448 0.0759180615111359 1.2422685650387435 109 109 109
0.6792286471873780 0.0809092908470983 1.2394621996314761 75 75 75
0.7005004949948903 0.0805697210838036 1.2596452290270364 65 65 65
0.7057515774846064 0.0934360577455019 1.1740201306909492 123 123 123
0.7574209347284436 0.1119408652426473 1.1615908430436859 128 128 128
0.7483352079429920 0.1170809340582526 1.1658177716251703 85 85 85
0.7874701151964726 0.0871326537926697 1.2684779047324086 61 61 61
0.7521545249432307 0.1039242358155533 1.1966827348839946 120 120 120
0.6769105871092399 0.0558101250080897 1.2549631704177864 50 50 50
-0.0241107047079633 0.4386192375327961 0.5945186617870647 106 106 106
0.6827231623685711 0.0531028066645006 1.2614359631633667 47 47 47
0.7893515593377864 0.0964171452088566 1.2490546480531821 66 66 66
0.7980390470662808 0.1106187810192936 1.2221784114830641 65 65 65
0.7949307480889044 0.1060592129188820 1.2943343198929345 32 32 32
0.7138431877457537 0.0782680712591559 1.2925659804132261 64 64 64
0.7218513701266334 0.0753473646759883 1.3231628804419580 61 61 61
0.6642334466910517 0.0391525036166817 1.2463146925454465 105 105 105
0.5749663472489702 0.1580970921432923 1.1026443997545183 72 72 72
0.6972321223844942 0.0390085922694288 1.3409774729661574 34 34 34
0.7446402947240928 0.0939995575252508 1.2090766911678659 119 119 119
0.6649606856223627 0.0717422661964450 1.2339817575409724 50 50 50
0.6724722312766672 0.0755869299852677 1.2383499387664456 43 43 43
0.6782594649033128 0.0457221864244409 1.2448395691508716 109 109 109
0.7512537343625773 0.0891492667886496 1.2195729726253475 119 119 119
-0.0320547964792828 0.4134589887683148 0.6134487769148779 107 107 107
0.7828763374360357 0.1113898656993185 1.1966556177446830 123 123 123
0.4950674416110261 0.2056930288457931 1.1005302482568144 80 80 80
0.4576473040652086 0.2029185242351377 1.1176502932790864 8 8 8
0.6932098122910210 0.0494024544295543 1.2771928079867059 81 81 81
-0.1197380179086964 0.4009733641275949 0.5978712122689899 4 4 4
0.6744302913875493 0.0872884152968152 1.1872250773320681 69 69 69
0.7164472194589281 0.0911933490913768 1.1719263353612346 85 85 85
0.6716122681693244 0.0507233886348830 1.2431913402676542 46 46 46
0.6877454730419749 0.0494355050080290 1.2675728048267663 36 36 36
0.6685940200586287 0.0656513888002723 1.2387401678242596 67 67 67
0.6874445044711652 0.0806973498324785 1.1963088188610269 69 69 69
0.6545599156860102 0.0644669083921736 1.2285305361308287 49 49 49
0.6674736777296020 0.0785766603775563 1.1874654227514756 64 64 64
0.6901396405950130 0.0758445348359446 1.2584044551838220 66 66 66
0.6787417471509662 0.1053307226779632 1.1607236308960254 121 121 121
0.7099403130260065 0.0982788639133857 1.1631917317666185 128 128 128
0.6894245384763861 0.0814664423379140 1.2466904538589116 55 55 55
0.7451957536164014 0.1005901511014549 1.1973079414754491 56 56 56
0.7658041695367197 0.0934368873707279 1.2302212162890502 39 39 39
0.7142263877625263 0.0762572704311419 1.2774871137444082 71 71 71
0.6789488078301217 0.0461703059100762 1.2737043596682918 106 106 106
0.6959157084818808 0.0503223552808734 1.3390240563105191 98 98 98
0.7606383591283401 0.0958289227664434 1.2262166908993855 114 114 114
0.6568344635129150 0.0744946950430829 1.2262454726180472 117 117 117
0.2918931591886409 -0.0291223610385193 1.1714764172893772 109 109 109
0.6405164327834219 0.0523532133402313 1.2273639781392638 123 123 123
0.5737661192974828 0.1676218412246310 1.1042427387579410 84 84 84
0.4563616998722270 0.1509864514674956 1.1274984666867700 111 111 111
0.4046692051940934 0.1548295404426512 1.1013547029965229 12 12 12
-0.0475796767826299 -0.0029483744385161 -0.1122367192101412 0 255 0
-0.0443625001713765 0.0011491934572571 -0.1130455919815671 0 255 0
-0.0350496664359252 0.0108096953346476 -0.1209533766633121 0 255 0
-0.0208398718146082 0.0046643899563782 -0.1252545451081870 0 255 0
-0.0025971105819913 -0.0079374835600582 -0.1136081230631854 0 255 0
0.0266162918578980 -0.0098894872883490 -0.1211896164098311 0 255 0
0.0508477859014519 -0.0103883775783450 -0.1223488357002574 0 255 0
0.0746956659313662 -0.0014784367696481 -0.1155342862484882 0 255 0
0.1090799774638194 -0.0012350000549687 -0.1165134450831792 0 255 0
0.1325012625274798 0.0033812049800133 -0.0883955424678959 0 255 0
0.1734185467301679 -0.0012617118673075 -0.0970828923271602 0 255 0
0.2288631566316192 -0.0006411606514374 -0.0997278850100349 0 255 0
0.2844511048695938 -0.0003691459450677 -0.1102796767665862 0 255 0
0.3602899103072946 -0.0003687508003520 -0.1178144079290913 0 255 0
0.4494801494983972 -0.0093506590526783 -0.1232557432811184 0 255 0
0.5349338726802081 -0.0199887900828802 -0.1142069113583618 0 255 0
0.6161991403183740 -0.0287502046172124 -0.1061959300296311 0 255 0
0.6948965265472390 -0.0494636069218306 -0.0819025766484128 0 255 0
0.7644793865261800 -0.0557510105619522 -0.0430264465552374 0 255 0
0.8365644676335166 -0.0564852785587978 -0.0027877683799734 0 255 0
0.8988888478808640 -0.0756241226686671 0.0371420951519706 0 255 0
0.9725478992991557 -0.0812443663701770 0.0878689743135636 0 255 0
1.0263720138221850 -0.0867932772424349 0.1310519453120973 0 255 0
1.0786106396285864 -0.0900506762470257 0.1814087901725023 0 255 0
1.1386452093531094 -0.0749538590526783 0.2432175854138305 0 255 0
1.1871135643050572 -0.0868445773341364 0.3302927762937461 0 255 0
1.2439192379172030 -0.0692997846747108 0.4121012142606562 0 255 0
1.2956286821813336 -0.0650369586394545 0.5432675811873695 0 255 0
1.3110929228669317 -0.0680515812682842 0.6142543019266709 0 255 0
1.3098017521581191 -0.0751704292553624 0.7063282790588887 0 255 0
