ply
format ascii 1.0
element vertex 682
property double x
property double y
property double z
property uchar red
property uchar green
property uchar blue
end_header
-0.7061021855990443 -0.0137400548690407 1.8379103127297425 174 158 142
-0.7102989819450757 -0.0148635137330751 1.8416435890387113 224 216 205
-0.7184225455591663 -0.0158267497861860 1.8399789545865755 144 156 82
-0.7052166877020144 -0.0158610511088268 1.8412528847314937 150 128 105
-0.7049906952453120 -0.0159122281605617 1.8428184924044899 161 154 128
-0.7114886899476579 -0.0154975429843204 1.8438983783353049 167 151 136
-0.7157018522238647 -0.0061979040069821 1.8368468369563666 186 183 178
-0.7199010965900727 -0.0094844137920296 1.8348223354495010 134 127 119
-0.7090115297046038 -0.0139716438994004 1.8393749584079759 241 241 239
-0.7172384637539548 -0.0065919103603623 1.8367971334201239 145 142 137
-0.7191182510827229 -0.0067513905917768 1.8336544284687228 60 60 60
-0.7240548811039189 -0.0117594602242457 1.8434554782011616 184 166 152
-0.7190625179941358 -0.0131089852936212 1.8393334171904492 159 154 151
-0.7072297180505804 -0.0153054566872759 1.8418997109185997 195 175 151
-0.7150441858599770 -0.0083298832650311 1.8373479576483676 113 106 96
-0.7172023440307750 -0.0094806454474383 1.8365010853340880 128 123 120
-0.7234275068930424 -0.0149537893896847 1.8431914118562660 70 72 59
-0.7056214793297695 -0.0142408148622557 1.8383854816634835 196 183 166
-0.7201300967455143 -0.0103295426941902 1.8382300675656618 167 159 157
-0.7194792740757485 -0.0153878704067947 1.8385618721927481 136 129 111
-0.7072515784852108 -0.0149004466166484 1.8404749026786607 140 132 129
-0.7185963658212723 -0.0062891656928654 1.8361087269828940 128 128 128
-0.7127842398480111 -0.0162797059175117 1.8466348109658162 168 159 120
-0.7148431968678618 -0.0121124768542493 1.8395221874257235 180 171 166
-0.7071130940615561 -0.0128240681674027 1.8372362681651786 163 147 131
-0.7104043259297471 -0.0147182295493714 1.8412841534802493 153 143 134
-0.7077553710087123 -0.0153985277514993 1.8420117003090632 191 174 158
-0.7070448754842170 -0.0153451073301966 1.8418677214957873 198 192 176
-0.7072247779311184 -0.0153682021841369 1.8419163850083324 168 152 126
-0.7113068212279252 -0.0155230284654330 1.8438944148520795 164 146 126
-0.7158138291798646 -0.0082929725094180 1.8377469706146672 144 135 128
-0.7159178888658569 -0.0083468148489081 1.8377538506991655 147 138 131
-0.7054801016485672 -0.0158057934574224 1.8411379035556590 113 108 76
-0.7123888772606251 -0.0162092719375997 1.8444382551405891 131 109 98
-0.7130306637784332 -0.0162471396716337 1.8447914512142269 142 135 125
-0.7148669281021588 -0.0163722366585702 1.8465890831896292 127 120 110
-0.7124661616580900 -0.0162758733581724 1.8463901915177756 149 155 111
-0.7117777102032077 -0.0162681365501237 1.8482476596287749 151 151 123
-0.7111862683298112 -0.0144553811779822 1.8410394111595816 153 140 132
-0.7107877517802157 -0.0150102082006146 1.8421485184842596 198 193 187
-0.7167257556642518 -0.0159547990208417 1.8415556418584076 127 164 71
-0.7148612567847470 -0.0159223380820476 1.8420676708646335 146 172 81
-0.7108577366997532 -0.0162777578524106 1.8482674845534333 151 142 135
-0.7167149715283981 -0.0070672259377844 1.8377055503674604 99 98 96
-0.7128900805562455 -0.0158219101610947 1.8446097385192288 130 149 85
-0.7041615412056703 -0.0157734434603283 1.8405492335150710 103 99 72
-0.7189212901589023 -0.0088452738230998 1.8353525819298588 83 79 70
-0.7207344689835529 -0.0075740814714105 1.8356158148361468 102 101 99
-0.7168625918836090 -0.0058940595841303 1.8375305818669803 100 96 95
-0.7165279908741309 -0.0092361517695328 1.8378457563240225 96 85 83
-0.7092999368878983 -0.0138385468841890 1.8392375816670938 170 161 156
-0.7184081732214278 -0.0157742211664210 1.8384510977760162 48 56 35
-0.7145310898657673 -0.0145031865835297 1.8415363030254075 108 101 95
-0.7143926660159491 -0.0147633144285214 1.8417542832515690 86 82 73
-0.7091726670207977 -0.0149560988781551 1.8415886997617650 163 153 144
-0.7164445484254114 -0.0066682942520651 1.8370697710440853 108 102 90
-0.7230466442343058 -0.0067816504227271 1.8391743761078718 134 135 129
-0.7244553548641273 -0.0100858932573198 1.8419417384320056 103 108 104
-0.7249528719588391 -0.0157620586583575 1.8411314307318534 114 108 92
-0.7096611149923502 -0.0092296575810811 1.8353897424021774 144 133 129
-0.7184923103045245 -0.0070209396867597 1.8358532561401790 172 165 159
-0.7043991013501509 -0.0158422839385973 1.8406991486407778 113 106 88
-0.7104284550717843 -0.0161957242685855 1.8459868373601429 154 145 140
-0.7147233266344191 -0.0158827049489210 1.8421842809924975 163 186 98
-0.7109780094217339 -0.0159898188314940 1.8439117056329033 105 118 74
-0.7055732016742975 -0.0158925623737227 1.8411470508122185 52 49 34
-0.7102808189002183 -0.0155121089985359 1.8433504189999232 211 195 179
-0.7157008365450263 -0.0154849593910149 1.8395292121647187 94 123 59
-0.7151450678750955 0.0106827915863122 1.7143860077734416 69 66 35
-0.7198781080957194 -0.0123741189526438 1.8319460020090292 58 70 48
-0.7076946725476624 -0.0121616925710678 1.8365582828085976 153 136 118
-0.7167799375801429 -0.0064544335537545 1.8373580354469417 162 153 138
-0.7069218855191927 -0.0132421842788890 1.8375067618895053 149 136 130
-0.7113817203860777 -0.0144152668359004 1.8410599030954842 148 138 128
-0.7059659537761535 -0.0140501064898764 1.8383201654319459 186 179 173
-0.7066797968477098 -0.0148828931341643 1.8403716322651065 181 171 159
-0.7099940917837059 -0.0154997263967168 1.8432557768725846 193 180 163
-0.7047032957478745 -0.0152140597791611 1.8405963400069814 97 91 77
-0.7156842764657984 -0.0091682452671030 1.8380666176666609 110 102 99
-0.7076556491681397 -0.0154606921119509 1.8421356941202078 105 97 86
-0.7140163514933990 -0.0159516517734592 1.8448709411527537 104 114 43
-0.7063181335655371 -0.0159659953431542 1.8435941870497969 156 149 120
-0.7163332120374932 -0.0079358932663258 1.8378040259251529 165 155 146
-0.7061109606840663 -0.0153349466338192 1.8413355239008464 105 92 73
-0.7183088172877191 -0.0152648354894307 1.8367847326829991 80 93 65
-0.7037225769200377 -0.0150998270238633 1.8402108238957604 159 146 130
-0.7137150164066841 -0.0163084479069610 1.8462029634430184 133 123 114
-0.7078548179014993 -0.0136987958153967 1.8384592371800792 151 140 134
-0.7209134621910162 0.0172210180141007 1.7578100485441071 110 119 102
-0.7157223182159546 -0.0112438182046155 1.8391298556492233 179 162 154
-0.7166000913011689 -0.0079393130417611 1.8378911466697112 100 92 89
-0.7144128863238833 -0.0163232877176926 1.8470880830951066 137 136 90
-0.7168434515265695 -0.0061233010735239 1.8375291998950605 106 97 98
-0.7090889219307057 -0.0141638442581768 1.8396843756052323 158 150 147
-0.7091223951418221 -0.0149575365483930 1.8412546047100911 156 147 140
-0.7244594042674843 -0.0100027920730490 1.8427111138704053 215 214 210
-0.7179993806123813 -0.0097750774692311 1.8357294155003214 46 47 42
-0.7206950259380679 -0.0120849311534960 1.8389313357522332 124 124 116
-0.7117756111409018 -0.0161761030401593 1.8472387796340994 129 149 98
-0.7069346816836112 -0.0131600263523516 1.8373602220018583 160 146 133
-0.7151961385368955 -0.0107186229185241 1.8386895683381237 157 149 146
-0.7158961644857296 -0.0082100015941785 1.8377527772832223 120 111 104
-0.7168031151047545 -0.0065148904402881 1.8375538040016468 97 91 91
-0.7156689848887516 -0.0161727782756921 1.8461912436848464 82 102 74
-0.7190419080142516 -0.0095361595501693 1.8351155027595740 109 106 97
-0.7240056379604493 -0.0058668231087327 1.8383565715203984 134 133 129
-0.7186129850639629 -0.0088612625484505 1.8353605960705455 87 83 74
-0.7223029992657654 -0.0140170790577782 1.8394822389064880 69 71 70
-0.7216294238488168 -0.0129222541533283 1.8330656873865552 90 86 85
-0.7218812601567531 -0.0134049169923826 1.8396424536554357 167 161 161
-0.7168304390009840 -0.0101824138149316 1.8368936950053887 126 112 101
-0.7202637826645222 -0.0105613008468587 1.8381126441265772 156 152 149
-0.7175723519767628 -0.0089693051482962 1.8371863112689859 57 56 54
-0.7163209679975791 -0.0079576927522114 1.8378382074533317 169 158 152
-0.7130887851407057 -0.0159172163972863 1.8447361774258857 148 157 92
-0.7054529058524779 -0.0158834623493873 1.8411401131127998 70 64 38
-0.7147686869143043 -0.0083415630649280 1.8372851411718969 147 140 132
-0.7154200885531939 -0.0061316408644832 1.8366489735560045 190 183 175
-0.7155860647490336 -0.0082754571041511 1.8376228172333768 157 147 138
-0.7155447977040379 -0.0097465642691161 1.8383188343487928 148 139 130
-0.7128963759134651 -0.0159488531687762 1.8447067716201258 137 147 97
-0.7061469422363204 -0.0159907652143121 1.8442846377401847 146 144 96
-0.7081617396681412 -0.0115723749758420 1.8362908709474344 150 133 117
-0.7164568968250576 -0.0087087407093739 1.8380150639695449 150 137 129
-0.7218757240702269 -0.0107363669345273 1.8398207194921266 168 164 161
-0.7217353648770799 -0.0145012069512126 1.8394726312732412 136 133 128
-0.7105219939654813 -0.0155563762671990 1.8435112888721095 95 81 70
-0.7150816119547957 -0.0110057388609820 1.8388592788060654 180 171 166
-0.7111220881902786 -0.0058170195836991 1.8347981863603069 143 139 138
-0.7165632116588251 -0.0072182653176838 1.8377393182467880 147 138 129
-0.7085835448612723 -0.0141227408849249 1.8394646839510214 198 187 183
-0.7093296249901750 -0.0153334003234865 1.8424549278426399 153 137 124
-0.7113340514128489 -0.0156474486230747 1.8438689769775407 179 158 127
-0.7350534721760527 -0.0076595947819071 1.8288418205521786 127 127 127
-0.7161617417174951 -0.0083447546918028 1.8381098143530208 141 132 123
-0.7158347455755683 -0.0110970298751065 1.8391452563992312 147 129 119
-0.7157214080599128 -0.0099465723994985 1.8384486131568873 146 136 127
-0.7158280990620434 -0.0087708829380228 1.8381635206088356 122 112 110
-0.7105935532102686 -0.0162194463042160 1.8473368720960563 146 143 112
-0.7258870802136735 -0.0077806469359635 1.8393821338818865 104 100 101
-0.7351729269535339 -0.0077384478337238 1.8288233685720088 102 102 104
-0.7143838100033710 -0.0140727707424645 1.8415732814600594 183 173 163
-0.7059961046634770 -0.0150102163451240 1.8405390739627243 150 142 139
-0.7151880529009794 -0.0119641576921829 1.8397941649802914 165 152 146
-0.7155134963965455 -0.0099425401280265 1.8383911656421661 134 129 126
-0.7158667170100230 -0.0099957760790278 1.8385360553148282 167 153 144
-0.7044097694505180 -0.0158465465176368 1.8419498405677011 159 158 114
-0.7042422366991432 -0.0159067949286806 1.8441131721082493 208 186 145
-0.7158275582298326 -0.0108408586971467 1.8389923229638552 163 146 138
-0.7092242896273198 -0.0140058751929087 1.8394867892574043 202 194 191
-0.7090401404188135 -0.0140915307731156 1.8395485396957458 202 197 194
-0.7085956690800961 -0.0156201725717377 1.8425708959542173 97 93 90
-0.7110769319822718 -0.0159853099659993 1.8438247397210841 80 103 61
-0.7163077475785427 -0.0089710619266037 1.8382956075036188 147 134 126
-0.7159311714245843 -0.0097300450417893 1.8383899303665590 145 136 129
-0.7128205870016575 -0.0159947515284379 1.8446763599935736 99 105 77
-0.7110947219411342 -0.0161922685981211 1.8470892947064574 175 166 137
-0.7032376196306198 -0.0158769333647707 1.8433069918004874 143 134 91
-0.7014181476880943 -0.0157402650093587 1.8402846406228022 131 122 89
-0.7027015534241825 -0.0158166249793980 1.8427197020923569 153 142 114
-0.7018788136516660 -0.0157915672152258 1.8435832384752038 143 136 107
-0.7177840703715574 -0.0155392956072376 1.8377579984383396 67 96 40
-0.7042392433372916 -0.0159145456873480 1.8440027216431087 198 176 135
-0.7068658420439590 -0.0131312885942903 1.8373001955870398 186 167 150
-0.7139999717543413 -0.0160089999914217 1.8450267997620633 136 124 86
-0.7043058754265781 -0.0152599167806757 1.8405237339362703 56 52 43
-0.7257376560412055 -0.0136910726156368 1.8387593888263414 110 106 103
-0.7167931801935123 -0.0076663549108169 1.8377914815057681 65 65 67
-0.7205162001142813 -0.0075777097928683 1.8360137396663339 99 93 93
-0.7256510426514390 -0.0140839581281156 1.8388120122464364 85 87 76
-0.7166922822042868 -0.0079684285021827 1.8378936270743274 60 59 64
-0.7140596185159602 -0.0143913187067932 1.8422224501999567 175 152 134
-0.7036557391261850 -0.0158402694565740 1.8424021304280318 151 144 92
-0.7081894789183764 -0.0116637163517380 1.8363317124048468 158 144 131
-0.7193412059520279 -0.0156891583221828 1.8376950826408278 50 58 37
-0.7145613169723039 -0.0139103311955675 1.8410784127265503 161 151 142
-0.7337662255732940 -0.0082478987141997 1.8301300257770712 144 138 140
-0.7161938966411799 -0.0091969521782653 1.8382605360337501 132 122 113
-0.7067478479779222 -0.0148695123431664 1.8403525446373408 181 166 161
-0.7147182876767615 -0.0158925632919297 1.8421971737078753 180 192 126
-0.7047122936349860 -0.0148900739272328 1.8397316833820290 157 141 125
-0.7128109748859395 -0.0161712623537880 1.8446979073539020 98 104 78
-0.7137211977566624 -0.0148774642369137 1.8428181653428666 164 147 129
-0.7071206101888979 -0.0145484427004690 1.8397796825293464 203 194 189
-0.7208567580487398 0.0131780263937410 1.7483575158731459 32 42 41
-0.7031288441046156 -0.0157965522494377 1.8413436125270810 116 98 84
-0.7140586309126730 -0.0074185807447927 1.8365921475414839 147 136 130
-0.7106962171014539 -0.0143476847665590 1.8406315168675886 232 225 217
-0.7059743293701825 -0.0140136436362167 1.8382361414508874 159 154 148
-0.7063357871437138 -0.0153357197796915 1.8414884753533034 112 102 90
-0.7167162122772369 -0.0068009546148312 1.8376362282296721 93 92 90
-0.7275515580714210 0.0103181073599228 1.7596004196996422 59 75 48
-0.7229268916382176 0.0151805438185125 1.7586046087221507 89 110 77
-0.7182288686072518 -0.0157482859369157 1.8392430218754967 104 134 60
-0.7094249888233327 -0.0094639863619359 1.8353414159855523 141 123 111
-0.7044133803438432 -0.0158291803556141 1.8406111379252015 62 58 46
-0.7110312195705860 -0.0070000175829820 1.8345853638657019 133 124 127
-0.7038433816434256 -0.0151692447414952 1.8402995175605328 101 88 71
-0.7047004793179495 -0.0157354993592905 1.8408449429981388 91 84 74
-0.7041799006385377 -0.0157828774965561 1.8405353604777110 122 118 91
-0.7085602477945859 -0.0154336068014653 1.8425546018376362 204 186 172
-0.7032884349726053 -0.0157736081910628 1.8411929813457304 157 146 114
-0.7128908881580747 -0.0163253526304459 1.8460015908492802 149 144 104
-0.7092080716587683 -0.0154707652202752 1.8428366184412708 188 169 154
-0.7083838578522353 -0.0153995858082079 1.8425706059559881 187 164 148
-0.7029683523779716 -0.0158263481495786 1.8417922275441778 156 147 106
-0.7031410551285985 -0.0158356407297611 1.8428883384700627 145 137 101
-0.7029599634275457 -0.0158344277990448 1.8431599269550927 142 138 103
-0.7004338051775519 -0.0157405306287267 1.8401644508281068 178 158 133
-0.7036694578508884 -0.0158511696666418 1.8424148241798344 165 157 111
-0.7128817671371236 -0.0145428941218287 1.7779308652896957 38 49 35
-0.7197648105596968 -0.0097850140174944 1.8352967859888938 33 34 36
-0.7259359440196572 -0.0109981755870424 1.8386926278466764 103 98 92
-0.7138836501503448 -0.0146787128908578 1.8425447896161307 162 144 120
-0.7259105553373032 -0.0113833280103741 1.8386963645140377 102 95 89
-0.7151078567819874 -0.0136680702418496 1.8407935507859576 65 64 60
-0.7161706397377838 -0.0096514066095816 1.8387863278989434 74 70 61
-0.7067143280386122 -0.0150826611640392 1.8393226404736829 157 146 142
-0.7121308692050716 -0.0161006169175805 1.8464514640721650 120 123 76
-0.7226429079568165 -0.0150350943022445 1.8394391183227268 62 59 50
-0.7065446348635509 -0.0147913616541505 1.8400671366987014 124 111 102
-0.6987696197137729 -0.0157355399405180 1.8328484056474263 160 149 121
-0.7084540506133240 -0.0160468028988956 1.8429315598016018 125 118 110
-0.7042872537693788 -0.0158924211521484 1.8438824944256833 122 115 86
-0.7158984935106164 -0.0099657640047945 1.8385739873425051 159 147 135
-0.7152500688213367 -0.0108350144486840 1.8387842665656173 172 163 158
-0.7128498558021812 -0.0158437094901261 1.8446729491545812 119 140 84
-0.7049585530936268 -0.0151257552743284 1.8404504812386262 203 194 189
-0.7014727365962119 -0.0157529583066442 1.8402867960274334 147 144 101
-0.7130483677812938 -0.0158107673547990 1.7787826613351834 29 33 34
-0.7205932211789566 -0.0123863320293858 1.8388693950354900 113 112 108
-0.7055973049806449 -0.0159047385758819 1.8412519610686160 121 108 91
-0.7089281257255409 -0.0139814736874343 1.8393276886925343 210 200 198
-0.7203314297840360 -0.0157781578545762 1.8401044403645836 104 131 64
-0.7053340655487861 -0.0150033736582050 1.8402314655750327 164 151 143
-0.7036944513660435 -0.0152517709000182 1.8402306007301783 145 132 126
-0.7107130985063180 -0.0161379933143386 1.8436413676075734 123 116 110
-0.7080645471616890 -0.0160407308053923 1.8422715434512307 92 89 82
-0.7059096224159557 -0.0159042244952034 1.8418960733187522 160 160 158
-0.7065733872234549 -0.0135170276345077 1.8374275067464223 196 179 161
-0.7122622167673930 -0.0161680006532134 1.8460573888729950 141 139 88
-0.7097245794828826 -0.0096820619007267 1.8355875684754792 151 138 132
-0.7108653196141906 -0.0159419615359262 1.8439862106828715 75 84 55
-0.7028846927881814 -0.0157862418755668 1.8414001817744341 123 107 73
-0.7044137990519390 -0.0152346864891271 1.8405697451554113 101 91 79
-0.7199390367758435 -0.0079261719785114 1.8353124647519814 91 87 86
-0.7073576012982347 -0.0126243509756977 1.8362639903569811 78 80 59
-0.7049157752603186 -0.0151354812538085 1.8406860902910844 151 145 145
-0.7060079106896340 -0.0140913254109592 1.8383705388285443 175 171 168
-0.7190161820251044 -0.0158913331226703 1.8388227716086669 71 74 47
-0.7077969194938384 -0.0153307419296218 1.8420586589133128 189 164 144
-0.7128068623816903 -0.0157574620121425 1.8445226495155451 66 69 50
-0.7099602987770294 -0.0086278065310618 1.8352485381102834 174 164 155
-0.7036778884223341 -0.0151312484122716 1.8401846032391358 77 72 68
-0.7030799696445921 -0.0157953127630933 1.8413767534442185 95 80 61
-0.7071416402444000 -0.0154757514601399 1.8418317950401355 108 95 86
-0.7200354925606319 -0.0081533351179555 1.8351954430640633 42 43 47
-0.7159461679653761 -0.0104289313079364 1.8387250880412149 150 134 119
-0.7223807269375124 -0.0142929105440544 1.7765758398343510 185 153 104
-0.7196257305947350 -0.0144734548184062 1.7626270716898689 140 136 65
-0.7047861047231824 -0.0152041551752614 1.8406669184700524 190 173 157
-0.7038454730133434 -0.0151432788063114 1.8402910403999189 177 160 140
-0.7063372241300123 -0.0159209017573265 1.8415978404791378 43 56 28
-0.7104276130921170 -0.0161624041049179 1.8455905622687909 189 184 181
-0.7066639323404096 -0.0159949498192388 1.8439264514050047 140 132 119
-0.7031004307313852 -0.0157952152951026 1.8412650030946704 156 135 106
-0.7039044700443958 -0.0150131951822475 1.8399541625705540 156 137 120
-0.7042525210498853 -0.0159233004284173 1.8440449569801296 209 194 151
-0.7046611020763741 -0.0156188317200765 1.8406967101495391 91 83 64
-0.7053157004749425 -0.0142747275562622 1.8385530505707623 194 178 162
-0.7029227021925049 -0.0157898212227860 1.8414211895103341 171 159 119
-0.7205857563772352 -0.0154834787747762 1.7763464038236596 121 77 74
-0.7221252469345609 -0.0144490215386386 1.7759756777689020 149 125 81
-0.7127576731977638 -0.0151812398024732 1.8430078294420651 196 185 167
-0.7048397130942137 -0.0151451195567714 1.8405771898086987 116 103 97
-0.7047633499549093 -0.0152341623250534 1.8407389147545579 172 152 127
-0.7039341540756466 -0.0152901152116039 1.8403482914456666 106 97 82
-0.7107166555816760 -0.0079927910212157 1.8353486178901091 158 151 145
-0.7055744813649560 -0.0158594025329118 1.8411622943162442 103 100 85
-0.7048018623628887 -0.0158194951399373 1.8408419067205910 141 138 95
-0.7052059036024468 -0.0158735860767906 1.8411165517483965 193 158 126
-0.7054731469505967 -0.0159122950224027 1.8412039480178568 128 125 94
-0.7038973981240050 -0.0158562758931156 1.8419950725555749 156 154 115
-0.7003574567562756 -0.0156994615241468 1.8401048780060683 151 147 118
-0.7128623032107232 -0.0148354616515059 1.7797998370305541 136 140 143
-0.6993140599853437 -0.0156930684481846 1.8398062421872790 138 135 100
-0.7042282013085290 -0.0158875236978150 1.8440529516749342 182 165 121
-0.7236176145969693 -0.0151512667551284 1.7769798243183645 41 46 40
-0.7124750942267369 -0.0162379350980950 1.8453930695229708 149 147 108
-0.7226141611615124 -0.0144837704373760 1.7771270216274568 168 139 95
-0.7220586544560640 -0.0140068953778012 1.8394978117709295 145 136 127
-0.7181391774381722 -0.0067789692579299 1.8367521459749931 154 150 151
-0.7223074400650709 -0.0146589387258101 1.7768213279690206 167 143 99
-0.7060693094192285 -0.0158879125614414 1.8414071829989656 109 113 80
-0.7028746333013663 -0.0157902743748592 1.8414097522728401 132 114 90
-0.7157211967088402 -0.0096167478906744 1.8382927655883272 158 147 145
-0.7046967927325859 -0.0152088880320067 1.8406185294950785 98 89 80
-0.7131719806720805 -0.0162755096110811 1.8446507094512061 147 139 126
-0.7058956791781136 -0.0157963123748268 1.8414406143462201 114 113 83
-0.7063138002171107 -0.0159287445572118 1.8415211208703088 40 66 37
-0.7058997427660165 -0.0159179710519611 1.8419644488903399 81 77 76
-0.7067003482492340 -0.0160019002743506 1.8438776246887461 141 138 105
-0.7011789924028212 -0.0157559549351298 1.8401458612433732 83 78 74
-0.7093286550839867 -0.0095148968310101 1.8355502866712652 161 145 132
-0.7006247033017675 -0.0157540037986774 1.8359158063503587 142 131 99
-0.7042324612646169 -0.0159102797444251 1.8439890678037374 192 181 125
-0.7037063057032011 -0.0150391665402130 1.8400090412025978 184 164 140
-0.7032931833739445 -0.0157833449724371 1.8411712285297250 142 140 102
-0.7204733596277246 -0.0159670513550599 1.8395721981071411 105 126 59
-0.7059263711347972 -0.0159433418269990 1.8423856056298396 136 137 97
-0.7036005753894836 -0.0157463323857312 1.8402118449029845 119 102 86
-0.7149329051865962 -0.0132641811605545 1.8406651233455491 168 159 152
-0.7204103809032959 -0.0142904256139395 1.7763124922338889 76 103 88
-0.7236597394019458 -0.0168010410378075 1.7778529441487954 43 32 26
-0.7149703314667456 -0.0131166704852310 1.8404353844280805 167 156 154
-0.7198790220633124 -0.0166032196194884 1.7778792790072837 35 28 20
-0.7078098075504611 -0.0149015544817996 1.8406573561223210 193 168 146
-0.7153534819458798 -0.0119494441686546 1.8395460944861952 168 154 145
-0.7303557217251303 -0.0146489872391429 1.7759565659636072 113 105 30
-0.7058167442466492 -0.0150080817551760 1.8404688492740815 251 227 157
-0.7049138124599205 -0.0158533091885854 1.8408943520219623 106 103 88
-0.7195020736415645 -0.0072039138247367 1.8368436741629797 155 148 142
-0.7057332752585826 -0.0159018330621567 1.8415246287569065 113 110 103
-0.7063987693433461 -0.0159822170825909 1.8435265580671583 142 149 108
-0.7046081175803227 -0.0159180779962096 1.8436649776164185 163 159 148
-0.7099247302553005 -0.0088126255903702 1.8353104207140207 168 155 147
-0.7300952466208674 -0.0147369266974791 1.7744632200857826 94 99 43
-0.7300854942127919 -0.0150798842021201 1.7744156614714550 114 106 57
-0.7029930884711225 -0.0158022919466926 1.8411124283928790 96 96 86
-0.7092275118485952 -0.0154625037323671 1.8428448035768303 178 157 136
-0.7157417290858946 -0.0104281569584181 1.8389265601724860 149 135 124
-0.7084267573596165 -0.0112456408589730 1.8361206121625664 150 137 121
-0.7099851412473608 -0.0153141821901480 1.8419342936236851 179 160 143
-0.7317769755167552 -0.0157080032715830 1.7741097077038062 174 162 42
-0.7300616105286872 -0.0162950772622807 1.7741335420281354 165 151 90
-0.7027153819246856 -0.0158354830394935 1.8427315711565055 176 154 130
-0.7315886432481398 -0.0154986699463587 1.7744771004856545 163 148 57
-0.7314675819280781 -0.0159366113828110 1.7742601213134861 118 106 24
-0.7032005545611323 -0.0158177704420015 1.8420558814491723 148 139 96
-0.7107260741352462 -0.0075069789223690 1.8351162744746865 155 148 140
-0.7308733649169233 -0.0154834957695026 1.7742559479898712 171 156 75
-0.7291803769700773 -0.0158189397787618 1.7748265057475789 53 65 25
-0.7035309074641771 -0.0156991255776432 1.8401274569073234 48 43 37
-0.7036991127113054 -0.0150606402970377 1.8399474280143100 178 163 142
-0.7016902226106615 -0.0157218843373547 1.8391521556913051 155 144 126
-0.7326448761765225 -0.0152743103518190 1.7746750513718994 183 178 112
-0.7306380408205223 -0.0156928595387381 1.7748041397495049 166 155 40
-0.7311240426060912 -0.0152948852316569 1.7740510328007963 177 169 44
-0.7323674953841047 -0.0159918692413987 1.7744464202286920 113 105 24
-0.7019947496621044 -0.0157264636606117 1.8396177952328616 166 160 138
-0.7042096676341075 -0.0158911775050275 1.8440286606239120 190 179 123
-0.7036048866629894 -0.0158564163922272 1.8422136561872213 176 158 138
-0.7324914585061505 -0.0162925295488191 1.7742741352432450 161 147 50
-0.7036124025436308 -0.0152219346980702 1.8399921441363600 57 53 50
-0.7274153536462278 -0.0158513858201025 1.7755880071151211 46 43 28
-0.7221874157869825 -0.0161885035730784 1.7803946488318834 66 52 41
-0.7051088414253157 -0.0150900373109194 1.8388314751717310 200 178 164
-0.7315536797879908 -0.0158467765291491 1.7746334472368568 115 105 10
-0.7048047763296345 -0.0151810377697240 1.8406319937028948 120 107 98
-0.7042829477262188 -0.0158096446318342 1.8406951381974113 119 120 76
-0.7019875954928142 -0.0157597446711576 1.8395704404710127 98 87 85
-0.7315862206955718 -0.0147093706543414 1.7747650264102692 108 108 38
-0.7309141688153665 -0.0147802621065415 1.7737739752369930 98 88 26
-0.7314870241847258 -0.0150101970593433 1.7747124164545995 163 153 58
-0.7306143841170059 -0.0150542144284933 1.7746300134529944 104 90 17
-0.7121494466971603 -0.0154899817696845 1.7812018250692569 103 107 110
-0.7053191272134998 -0.0149672630153254 1.8402726070634756 149 138 136
-0.7063585559624561 -0.0158413755328192 1.8415418213151133 88 116 68
-0.7032329663830473 -0.0157779339033413 1.8408910240002434 172 155 145
-0.7055598011020953 -0.0159082852973760 1.8411983349083001 140 133 107
-0.7029154945670193 -0.0158149531637416 1.8414373505121191 132 115 97
-0.7138456918401680 -0.0147734674942635 1.8203708152803679 150 143 127
-0.7139853416420781 -0.0150731389527936 1.8196735000026543 140 126 113
-0.7137505099095840 -0.0151352766440105 1.8199430231689215 150 134 121
-0.7262085214072503 -0.0106416581960263 1.8384083756403418 99 94 88
-0.7165072235254558 -0.0080553977635067 1.8378987950956844 134 125 108
-0.7318878087504160 -0.0164843877232861 1.7748851962891219 66 75 28
-0.7038371900888951 -0.0158562976862611 1.8419846271233455 132 130 91
-0.7061499554660444 -0.0159920341834572 1.8442972529609556 152 148 110
-0.7042129970892287 -0.0148330156980819 1.8395247099761318 201 183 163
-0.7043157248990535 -0.0152514743703739 1.8405256392318132 59 53 41
-0.7154216011099667 -0.0124780458455826 1.8398857375108930 160 149 143
-0.7075038396415582 -0.0153184080325921 1.8418898261635206 188 164 138
-0.7082321343272354 -0.0153318105474426 1.8421155999814152 188 166 145
-0.7196432469132761 -0.0118156320680230 1.8386147909385506 176 170 170
-0.7218935929357601 -0.0103801880841332 1.8393185026894197 144 136 134
-0.7198171827052062 -0.0131339151116787 1.8398729695366491 157 153 150
-0.7037487037538918 -0.0151600945649754 1.8402501357002390 124 112 100
-0.7042705615657345 -0.0157447645164818 1.8405864396959994 130 132 108
-0.7043956715564833 -0.0157972432121384 1.8406241557640133 110 112 73
-0.7075238240526279 -0.0160215854278246 1.8436823652215981 128 126 101
-0.7029137789879059 -0.0158118953389360 1.8418015866259485 162 162 108
-0.7323969273969456 -0.0150071024108424 1.7751540975266304 162 156 96
-0.7110095159316161 -0.0154324866127702 1.8434572816185244 129 115 104
-0.7087825268838182 -0.0154505407605020 1.8426694067599629 177 161 146
-0.7028649687958148 -0.0158422200467114 1.8417544652292894 157 148 105
-0.7160405430766708 -0.0112027051746050 1.8207879561040918 127 118 111
-0.7137603436686171 -0.0075599913683682 1.8365011957740782 144 136 133
-0.7028637956279224 -0.0157695915915118 1.8413591038851760 186 162 134
-0.7165425046439799 -0.0081550584931867 1.8378994641296866 131 118 109
-0.7255147070292843 -0.0141467897856094 1.8386374150128546 86 83 78
-0.7138823487441017 -0.0151574627282661 1.8200078766585375 63 53 51
-0.7037048764552776 -0.0158690431930184 1.8423475770106594 140 136 91
-0.7063228774174799 -0.0159497560451515 1.8435837556135664 134 134 96
-0.7029740107290223 -0.0158289056726698 1.8417994721521482 169 163 111
-0.7258945435225643 -0.0109264540052617 1.8388073158440961 111 102 97
-0.7156538073117614 -0.0112551350010869 1.8392652532832947 169 157 145
-0.7259126152036015 -0.0106539218664652 1.8388129815590126 103 100 95
-0.7255153121265712 -0.0136084537674475 1.8389023237083673 101 94 88
-0.7308652899033378 -0.0157928380581083 1.7730496403246958 156 144 24
-0.7222189273185227 -0.0091594991730807 1.8394812205107600 170 165 162
-0.7258601219833217 -0.0060522088494339 1.8388600728911491 190 189 187
-0.7203958983391529 -0.0119497368263600 1.8392177104005847 133 126 118
-0.7205011105785357 -0.0153805243041378 1.8393793044206124 55 55 45
-0.7136596534542493 -0.0080890796855905 1.8366827898686697 152 142 140
-0.7080312992481003 -0.0116481796722310 1.8363796328623887 119 105 92
-0.7148914780563125 -0.0134264301963232 1.8203127504721297 137 128 121
-0.7043738316762485 -0.0157852821305686 1.8406127849995986 59 64 42
-0.7029049080120506 -0.0157924532724496 1.8417474260069435 121 128 95
-0.7147814487321686 -0.0137471785204146 1.8201770036463010 158 151 141
-0.7093706124767720 -0.0136860723160681 1.8390965110631066 152 144 141
-0.7156435596721291 -0.0121968069409629 1.8205128846027738 132 123 116
-0.7145832446339299 -0.0141496671651911 1.8199459543776477 164 157 151
-0.7014991277997534 -0.0158090956758745 1.8352178392610126 134 130 93
-0.7043834727770852 -0.0158804287176279 1.8415730688803178 128 130 93
-0.7154058216086532 -0.0125594904347168 1.8204844471104524 158 145 137
-0.7129550494635820 -0.0154196087040576 1.8216214206594588 112 101 97
-0.7055386666761118 -0.0148650846217928 1.8399276299171363 195 173 159
-0.7165902948594515 -0.0097847398800246 1.8211292206434193 119 112 104
-0.7134598579874641 -0.0157006472790655 1.8200574551586501 40 39 35
-0.7150985444636311 -0.0140576219859483 1.8193359492278995 151 142 135
-0.7054299033715181 -0.0152284786284693 1.8409298157324214 183 157 132
-0.7061892052865465 -0.0152630685022522 1.8409020891361114 178 152 127
-0.7131148030694353 -0.0158883646180029 1.8193139976892982 118 117 97
-0.7150872590389080 -0.0139695494796522 1.8191906422025075 81 78 73
-0.7037015117406956 -0.0150727892842027 1.8400585239668299 104 97 81
-0.7047789547000589 -0.0156742599608391 1.8407532466075212 102 98 87
-0.7043581033531245 -0.0158549011406324 1.8415223563526364 59 60 54
-0.7507210641719836 -0.0165407197654706 1.7490509902241027 122 115 109
-0.7110256380011132 -0.0160259777160785 1.8438618043246522 102 105 78
-0.7143994661975553 -0.0144432001925985 1.8198285963736169 154 148 136
-0.7120854581242291 -0.0156311795069451 1.8442946018090189 103 98 102
-0.7071810484939118 -0.0153987027893829 1.8418683832826324 72 65 57
-0.7242136236505181 -0.0146468116814714 1.7773493473395101 99 122 106
-0.7138600802866996 -0.0153131252890469 1.8199691401395439 57 52 49
-0.7313051981518839 -0.0163677411258888 1.7745035088976346 167 157 95
-0.7061351205308832 -0.0152677186404127 1.8348479666603199 66 61 57
-0.7308917038828199 -0.0145834729942915 1.7744447801298140 206 197 138
-0.7299594937477393 -0.0162884993229978 1.7739086571052971 152 141 75
-0.7556795752365639 0.0088332874453098 1.7578959066119306 194 200 212
-0.7146893796071496 -0.0141781892750855 1.8200524440102390 84 79 75
-0.7039105352211268 -0.0150135322025168 1.8399436782477443 158 139 124
-0.7037236638728094 -0.0150510799718322 1.8400050745975054 173 155 135
-0.7072341622609132 -0.0153942857868133 1.8323611439710208 115 97 77
-0.7046120024075171 -0.0151364581017682 1.8404557985545322 173 152 135
-0.7037047633795820 -0.0151034612829697 1.8400841471082376 86 78 65
-0.7042255325438849 -0.0151978377351748 1.8404765341786791 183 161 137
-0.7041469194197799 -0.0157608314671760 1.8405800918783486 136 138 114
-0.7060693873935956 -0.0153392276922832 1.8347356789556917 50 44 32
-0.7054891300514408 -0.0158110480093263 1.8411477850878621 122 119 84
-0.7090354938786535 -0.0154115521626806 1.8426074210261902 175 154 135
-0.7125185951811536 -0.0142042982231214 1.8410803652319541 155 147 134
-0.7065581990177412 -0.0154022854857777 1.8335880905750499 100 90 78
-0.7122755730132768 -0.0071228939388382 1.8312931135278347 133 121 105
-0.7043269963807709 -0.0158407319138289 1.8406264230898071 111 112 70
-0.7109643422958567 -0.0078608655220124 1.8331935964216457 137 130 114
-0.7134328871466105 -0.0053345481580064 1.8292329150556361 163 155 142
-0.7104942206959761 -0.0083794674203748 1.8353720027039582 159 149 139
-0.7146697679961667 -0.0054578868066044 1.8270803286516892 152 143 128
-0.7077300283753944 -0.0121205529643749 1.8365988670735978 128 114 103
-0.7102901173588373 -0.0084859582790056 1.8341581833898108 166 160 148
-0.7091135840437475 -0.0110889831443904 1.8363969734701417 129 122 116
-0.7150269226653307 -0.0132256252793438 1.8203605749633458 156 148 135
-0.7112261964731978 -0.0154855284281008 1.8437621168094647 161 149 137
-0.7043048487305287 -0.0151875166293075 1.8405066721526908 173 156 128
-0.7052127773528678 -0.0158649893744330 1.8411386232637428 140 117 85
-0.7043648039939107 -0.0152410306680668 1.8403052298201388 181 163 141
-0.7585906714951149 0.0105368057279561 1.7552455089362158 145 149 161
-0.7137367308939141 -0.0055668917629803 1.8288771410337072 169 159 149
-0.7127563899413121 -0.0161054114435825 1.8200804534061077 31 31 29
-0.7113572291751813 -0.0155306043651634 1.8438264744137751 184 177 171
-0.7081885369207284 -0.0154544789337564 1.8423770151493968 76 71 67
-0.7045597816918850 -0.0151937469672028 1.8406206952909856 177 157 133
-0.7220195033570055 -0.0131934351334315 1.8395355844111774 161 154 148
-0.7039077693518875 -0.0152239367528725 1.8403691809193843 72 64 53
-0.7097308520369547 -0.0156151707807066 1.8431443687008444 73 65 63
-0.7039747900333337 -0.0151323515242255 1.8403229783410198 177 159 145
-0.7042195565955374 -0.0151348076140354 1.8403721884325657 160 141 124
-0.7099920430887392 -0.0158361609655420 1.8260621008745461 44 44 44
-0.7087007281891391 -0.0153398232964813 1.8424824336575347 179 158 139
-0.7134542830022583 -0.0078624300955407 1.8281533237663339 131 115 99
-0.7048365777062492 -0.0158257859310488 1.8408333851351879 95 96 65
-0.7049978676674981 -0.0159117670687508 1.8428055130055772 152 145 116
-0.7125551678827553 -0.0085299638935565 1.8296092779529574 107 94 86
-0.7135057998936867 -0.0155338812601803 1.8195219546242665 131 118 102
-0.7142402996771950 -0.0147725794004842 1.8201644222030640 62 57 53
-0.7125504046191126 -0.0150181158902401 1.8231191558131363 41 36 33
-0.7138195044787291 -0.0159649981026506 1.8175583753279776 43 41 42
-0.7164045936872477 -0.0109044160001880 1.8212563385526628 97 93 90
-0.7197505516915942 -0.0102902610623043 1.8385867649042766 159 154 150
-0.7054788018875091 -0.0153037183463546 1.8359493601504084 129 109 85
-0.7096426861721905 -0.0092440373290673 1.8354098775943570 156 147 138
-0.7043813190264786 -0.0158361460739060 1.8407218502231912 98 92 80
-0.7116778619200007 -0.0128507405020930 1.8275127119528771 99 84 77
-0.7024250390185138 -0.0157662968508034 1.8388369250697414 126 128 104
-0.7043888051344360 -0.0158361395660791 1.8419082551351100 154 162 115
-0.7163663986043997 -0.0086365266971789 1.8381147690002380 135 124 118
-0.7144835133029942 -0.0143583366324919 1.8197616354579256 142 129 121
-0.7056351381043688 -0.0153282465239845 1.8355961405562087 62 57 54
-0.7053719823570808 -0.0153112272599110 1.8361760511962111 122 98 70
-0.7048265422136846 -0.0152897686647302 1.8373215309371211 50 46 37
-0.7042176158320991 -0.0158657987101514 1.8357275476455173 121 111 109
-0.7110991137890078 -0.0080765640953228 1.8328054028785785 138 130 117
-0.7101638385360552 -0.0089124529934767 1.8341386208737684 122 108 95
-0.7201790517121041 -0.0060585545717679 1.8151124318024112 125 118 110
-0.7083212857438460 -0.0154305309160033 1.8298033602377894 117 95 81
-0.7048315368238566 -0.0153121203506681 1.8373922690830009 42 39 32
-0.7030204155791763 -0.0157377091501111 1.8412562736067313 137 134 93
-0.7042977228078476 -0.0152021907424955 1.8384701655837756 137 120 92
-0.7140003689230063 -0.0150013340961468 1.8200660684411532 62 57 51
-0.7054538266891468 -0.0158863454054207 1.8412302473772797 93 86 60
-0.7141018639238065 -0.0147454895791884 1.8199066188841957 148 138 128
-0.7157068166446915 -0.0110651131970044 1.8390976249864539 164 151 142
-0.7162865019715818 -0.0099447927718830 1.8383707917116718 128 111 101
-0.7116217991291095 -0.0157225396810825 1.8230426472335972 122 114 111
-0.7084547483688042 -0.0154105672910924 1.8297631262826919 151 136 115
-0.7052592184876182 -0.0152053186534085 1.8365429344341888 113 91 68
-0.7184397514854195 -0.0077035121358786 1.8198190005143886 118 110 108
-0.7046565597154009 -0.0151241772637540 1.8404569984466088 173 152 135
-0.7200531013763612 -0.0081182815000178 1.8384723088448101 177 169 166
-0.7055151903998866 -0.0158084250822358 1.8359059155255013 36 36 36
-0.7101771915768399 -0.0081235740986713 1.8343370092443840 112 103 98
-0.7143214836870234 -0.0145289871310042 1.8197703995428181 157 151 139
-0.7070432758189453 -0.0153592089706158 1.8418377026668460 168 152 139
-0.7051503258683987 -0.0152493528468378 1.8409018283338305 184 168 143
-0.7047438985761474 -0.0151996298404697 1.8406244482947569 170 154 138
-0.7100999480860876 -0.0091942192819105 1.8341051685932406 155 142 126
-0.7110524353261777 -0.0145203034791585 1.8411145107062208 186 180 180
-0.7059323316269848 -0.0140133021168499 1.8383135814157097 131 130 128
-0.7115229375703407 -0.0077305810882772 1.8320546781457068 127 117 108
-0.7129934162038492 -0.0140567432356293 1.8410478157845280 169 162 156
-0.7075470629365409 -0.0156983007115774 1.8311195252980621 27 27 25
-0.7043032918479797 -0.0151493400965160 1.8403148971357848 163 146 126
-0.7152925547559342 -0.0140276295251609 1.8191396157348341 132 121 117
-0.7100957603649057 -0.0086634207658041 1.8342750698756072 138 130 119
-0.7096555254539693 -0.0092235931951704 1.8354477933401880 169 160 153
-0.7105373204416493 -0.0089660321191354 1.8334223291974194 153 145 134
-0.7043595639314330 -0.0158311019439441 1.8406405256582168 95 83 59
-0.7247195732643493 -0.0131785760248607 1.8414819802221785 72 68 67
-0.7204438149777693 -0.0165685101546414 1.8042832236321720 54 49 45
-0.7248085023861726 -0.0137981094322681 1.8413926996700820 108 106 107
-0.7101591734340671 -0.0082784815350711 1.8342690802409614 124 120 111
-0.7063584036560586 -0.0153424177456113 1.8341434607295575 139 126 109
-0.7053012961598863 -0.0153169262029495 1.8362717034427745 87 78 71
-0.7036372890584841 -0.0151416703041380 1.8398974276552302 114 99 78
-0.7017667795909885 -0.0157469787788300 1.8367044478184378 138 140 116
-0.7045251966318188 -0.0158990354777707 1.8418747376221876 142 142 108
-0.7128353108070855 -0.0082965155643133 1.8291662746100110 115 107 94
-0.7086130044172263 -0.0086658549446838 1.8362461850547180 160 153 147
-0.7570568016480745 0.0094356384402146 1.7570843528029323 251 252 255
-0.7061585139107143 -0.0153788463599712 1.8345564832484107 46 41 35
-0.7078461760338819 -0.0154082779808136 1.8420961200347290 179 167 153
-0.7017102790662973 -0.0157249308649538 1.8390961542395889 151 144 115
-0.7298261672434745 -0.0148820417823244 1.7745042634573798 169 162 107
-0.7015988187196364 -0.0157245825240126 1.8391717075617868 88 78 68
-0.7027388500031514 -0.0157992743560178 1.8381686088921529 134 137 94
-0.7020259946580006 -0.0157652295045556 1.8395122218070536 93 83 74
-0.7149927954213159 -0.0137557353057605 1.8195376658529059 71 63 60
-0.7101938755794444 -0.0083667757100079 1.8342428095794552 92 84 81
-0.7129346478702213 -0.0158424819224855 1.8197995484744220 113 117 84
-0.7101223396886532 -0.0083585709867562 1.8345272640010941 154 142 126
-0.7051598925989703 -0.0152829145559989 1.8366694566512283 167 150 124
-0.7011758101715694 -0.0157060930270394 1.8368779252822476 133 102 97
-0.7092163894144949 -0.0089489066738170 1.8352557693423361 66 60 62
-0.7101538878757532 -0.0158906253954162 1.8256067629581159 31 31 31
-0.7142673658122303 -0.0138889234066586 1.8411189563654626 195 190 187
-0.7038401594467497 -0.0155278778061727 1.8391741498460310 32 31 26
-0.7074642394846646 -0.0153618106263133 1.8317989905000904 126 104 90
-0.7068359253872951 -0.0153951452511518 1.8329696587735431 135 118 98
-0.7061136134677997 -0.0152166029402494 1.8349709713653948 66 45 42
-0.7064654693860541 -0.0153814927333033 1.8339199313162151 48 44 33
-0.7605022493956053 0.0094626086067408 1.7515444988992248 252 255 255
-0.7050378058585709 -0.0152855389515146 1.8369154152466498 85 63 50
-0.7068166903619829 -0.0153399198105269 1.8417372726096959 166 154 132
-0.7050088053065249 -0.0152950889847630 1.8369121320980304 142 125 107
-0.7054639956677746 -0.0159108957994721 1.8321036024804946 109 99 87
-0.7047733358104893 -0.0151901972182072 1.8406699275286749 167 150 132
-0.7100799803228904 -0.0087811049808856 1.8342471300644585 134 124 112
-0.7096401707533544 -0.0092454840381171 1.8354229055804538 157 147 137
-0.7049610826597921 -0.0158442426771092 1.8410733505293464 123 100 94
-0.7036455541581561 -0.0155336873579832 1.8402157607223242 116 106 94
-0.7014065652094557 -0.0157382709857980 1.8354539878447591 142 144 107
-0.7091806134759271 -0.0113070244746030 1.8342381634677303 126 105 84
-0.7242210006062910 -0.0110271482972276 1.8428786460836852 168 161 151
-0.7082729867717930 -0.0116748507025482 1.8356960104693161 109 99 87
-0.7361714555875288 -0.0163467082132654 1.7808115775151752 160 134 57
-0.7135989765373504 -0.0154855678261689 1.8200417563458411 92 85 79
-0.7076746164240065 -0.0141736451585134 1.8338756237723275 102 86 73
-0.7059526702966031 -0.0140496950878292 1.8383317819542015 176 171 168
-0.7056045251386394 -0.0153087313665100 1.8356846447036947 126 108 84
-0.7048438904365167 -0.0151852628403451 1.8405949767165515 75 65 56
-0.7057361401097684 -0.0158981986861950 1.8415139164037604 96 87 82
-0.7006021278104930 -0.0156780788291465 1.8360966297473356 161 155 121
-0.7028518895165777 -0.0157485727183899 1.8413557210468985 181 151 123
-0.7312157641637531 -0.0146646418331540 1.7747080749268676 115 111 47
-0.7011243009198801 -0.0157226698721446 1.8381749128943330 141 132 103
-0.7306278292771317 -0.0147191212442119 1.7749825520190641 129 130 52
-0.7089455926674314 -0.0140157815212737 1.8394299941835681 236 235 233
-0.7036214657405011 -0.0151572064082766 1.8401090419134007 94 90 79
-0.7057570284311566 -0.0153042508013778 1.8354352220002648 157 141 125
-0.7063678313583549 -0.0159749986312895 1.8435614796346911 127 124 93
-0.7046119849557722 -0.0159173223315392 1.8436587599501235 140 133 115
-0.7244756908846481 -0.0104679106246051 1.8427204999075708 201 196 190
-0.7567820728276434 0.0097664649313101 1.7570279909797555 165 183 195
-0.7251702133430280 -0.0096339903441157 1.8425669784447729 171 168 163
-0.7062063097422816 -0.0153484388332749 1.8343931238432212 108 89 72
-0.7037103390330396 -0.0150453455783319 1.8399475994631322 170 153 137
-0.7046565752342585 -0.0152109919313002 1.8376793259265465 119 101 77
-0.7040303714474879 -0.0151630804585389 1.8390816937368013 131 110 91
-0.7113888028353564 -0.0151399811163774 1.8427887747129741 220 219 217
-0.7086665335130139 -0.0154734632230580 1.8424644165966073 176 164 150
-0.7125502081077878 -0.0082022875285473 1.8297584794804971 107 97 85
-0.7169383943193273 -0.0070369490982500 1.8213876112060581 121 114 108
-0.7150727886464908 -0.0148881628517980 1.8207408744192690 37 36 34
-0.7010538864763225 -0.0157134221100414 1.8367884290953584 128 105 99
-0.7147014445942824 -0.0156719359797392 1.8164450057303656 106 90 77
-0.7202240767014212 -0.0062699521783143 1.8151629659061843 109 104 101
-0.7110660736375267 -0.0145314304745986 1.8413525847372385 157 148 143
-0.7071220239281170 -0.0154727241985654 1.8339362738310492 131 110 89
-0.7045136029759050 -0.0150749011078604 1.8382160935166885 114 95 78
-0.7131616063667153 -0.0069659765261887 1.8292614500099988 138 125 117
-0.7018073934015712 -0.0157480482591518 1.8367297899457113 122 116 100
-0.7106007761573997 -0.0096947919681062 1.8328622422208205 120 104 88
-0.7394399902720482 -0.0167330387791906 1.7761129397700943 146 126 53
-0.7091817676501193 -0.0140132439185082 1.8395242357606012 186 182 181
-0.7103858360105196 -0.0155789089386665 1.8254132118718576 46 39 33
-0.7040983758603075 -0.0151501908965187 1.8386814805655540 136 116 105
-0.7057290544858414 -0.0150039725179346 1.8404996478315858 192 177 136
-0.7104000542813871 -0.0085310224064380 1.8339487740482590 71 64 58
-0.7114502613575016 -0.0145617236137842 1.8413133986379528 162 151 147
-0.7158732075618097 -0.0142789052824378 1.8170212337302480 145 135 123
-0.7096556316470396 -0.0155082234487944 1.8271703298303883 45 36 29
-0.7062409429584636 -0.0151515098167958 1.8349557092933806 65 47 35
-0.7112883718495008 -0.0083705624614546 1.8322612103715759 118 105 99
-0.7096482949266759 -0.0113323971028920 1.8332971959265527 109 97 81
-0.7096251596870827 -0.0107884595899822 1.8338295554768380 128 115 98
-0.7075439807577507 -0.0154154011767439 1.8314627535160579 156 141 120
-0.7059872549539282 -0.0159123430322974 1.8418704520107478 87 85 88
-0.7112806699309652 -0.0075601294722709 1.8329099174678023 143 130 121
-0.7024546368442814 -0.0157560015582855 1.8384758171964126 117 125 84
-0.7058895812686935 -0.0158984881215004 1.8418736820327934 142 145 150
-0.7076998585397989 -0.0154411435056065 1.8419493944637388 172 158 145
-0.7110865755930943 -0.0074762226019391 1.8325275890884343 121 112 103
-0.7028162852153759 -0.0157839976109359 1.8391921242731026 127 101 86
-0.7046698591259574 -0.0153841813356051 1.8377239055468506 40 39 35
-0.7178252491909773 -0.0088603610137816 1.8378884362436754 80 76 77
-0.7089630660606568 -0.0149323206174512 1.8414154245064012 147 142 138
-0.7311731414112782 -0.0084357041643400 1.7971538025642522 223 223 223
-0.7103991751951744 -0.0086781776961374 1.8339401225600103 83 74 69
-0.7108265646868489 -0.0089612119327560 1.8329077835406795 134 122 110
-0.7090190376338844 -0.0140937025774970 1.8395733661015468 190 182 179
-0.7141576537675577 -0.0147102945677741 1.8200096017556593 148 138 128
-0.7326670035713493 -0.0152428805575908 1.7751046249022928 88 95 64
-0.7140000503705707 -0.0078600112051360 1.8269777523877002 122 110 96
-0.7096569219070081 -0.0097882795144493 1.8345927340281345 123 106 90
-0.7092067385712997 -0.0100691960398871 1.8352239270258879 120 104 88
-0.7073962063930948 -0.0153996465424600 1.8317724827880499 98 81 65
-0.7136067207428562 -0.0082012614840650 1.8277847538407506 125 112 95
-0.7247748510949680 -0.0077273427569426 1.8392704927262156 72 73 78
-0.7142931738511709 -0.0153321419354079 1.8203854216724507 35 35 33
-0.7061377781171890 -0.0152265187296365 1.8349002147027393 122 112 102
-0.7042051587209903 -0.0152002092606722 1.8386421447177701 130 114 101
-0.7106943896762937 -0.0084990833907821 1.8334817485379142 117 101 101
-0.7058892083131237 -0.0159076461882004 1.8419217718985594 156 146 147
-0.7094277047685870 -0.0094243706947699 1.8354242808344410 166 153 145
-0.7080589887747798 -0.0159625003131812 1.8300689853490899 74 69 65
-0.7100965391940303 -0.0092853292539625 1.8340995754232008 143 134 119
-0.7038106931696383 -0.0158224915059134 1.8403686976282601 140 128 116
-0.7160232876269510 -0.0141346315495980 1.8170118509453794 132 122 113
-0.7049025867772045 -0.0152898010515377 1.8371403703010207 51 37 37
-0.7051602515376826 -0.0158223550923315 1.8411916222045492 79 67 53
-0.7049426022627450 -0.0152588153046743 1.8371196857473941 159 144 125
