ply
format ascii 1.0
element vertex 707
property double x
property double y
property double z
property uchar red
property uchar green
property uchar blue
end_header
0.4351304768072716 0.2111988649970168 1.3060917494616024 102 83 50
0.0059902825305994 0.2861550960884693 0.9572312474661814 84 52 3
0.0717449007828010 0.1949245219443328 1.0565492680502102 90 58 19
0.1046513330844629 0.2047245793173532 1.0574338496899531 77 51 14
-0.0008528703350406 0.2085528683128368 1.0638190424579095 58 33 3
0.0712997615624679 0.2064647166418083 1.0571840247728952 70 47 6
-0.0052215117822577 0.2121360364298704 1.0600655242025006 101 78 37
0.2289559507069541 0.2193167105173053 1.0885534051406447 87 63 19
0.1111607570227397 0.2207015935615834 1.0526094051895245 65 36 2
0.0312253524729524 -0.2136653217714781 0.9844895119057727 127 94 41
0.4326753137421459 0.2189326639498013 1.3076431300051197 30 26 17
0.7120751773900011 -0.2350851570781788 1.6826791606654052 160 153 83
0.1388978695793627 -0.0938498639367444 0.9870603076562242 142 109 55
0.0866901333516833 0.2274277245754750 1.0566585339081385 117 84 51
0.1951216701481701 0.1765981513640466 1.0291260187055769 197 69 58
0.1664011783422994 -0.0390686167603117 0.9919388872666738 121 94 47
0.2166046787152663 -0.0241729164653039 1.0026574361567606 130 103 58
0.5875567927402308 0.2229113164859208 1.2873132273829118 173 164 157
0.4660332850903356 0.0733738467473190 1.3281136721143465 171 170 165
-0.0039184908020934 0.1836108366197733 1.0095729091990766 59 32 5
0.2234823848936642 0.0095978353455589 1.0279436480635551 135 102 57
0.0683667991211462 0.2460763185177073 1.0521950433672669 66 38 0
0.3102552941868252 0.2825168216672951 1.2273690402695288 49 33 0
-0.1458401445733386 0.0679745080479236 1.0395274924198261 146 116 90
0.4726962421186416 0.2712555954701979 1.1779506255722603 94 73 10
-0.0264305361971504 0.1809686547318999 0.9564517519821982 69 43 8
-0.1071481638929775 0.1052458092585663 0.9641958336251838 91 53 17
-0.0824042847975100 0.1830868656535783 0.9523800391214579 56 34 11
-0.1074078249373491 0.1138821222280552 0.9565548381887122 107 74 23
0.0391660175649430 0.2035671420129803 1.0618184815730913 42 24 2
0.7175359685196250 0.3212324631428273 1.2319158898029958 175 166 151
-0.1322525678980039 0.1345991294663444 0.9471520117042391 144 115 73
0.4331947738618134 0.3052397149931609 1.1506200142299610 80 51 37
0.5157485838320010 0.1430046956763263 1.3111584780326000 167 160 152
-0.1210687809439312 0.1412098053033143 0.9758423201571713 97 65 14
-0.0515839180727210 0.2805892827795211 1.0238115201637565 108 80 43
0.5453298067187790 0.1797334609542860 1.3004714100504979 170 163 155
-0.0354270200319344 0.2807402499207228 1.0081636321779708 136 105 59
-0.0491317859259241 0.2860825200627933 1.0189913550022711 69 45 7
0.0011112769388035 0.1298261427606878 1.0141549858416912 36 23 7
0.6357421565474677 0.2481500481081132 1.2686781860848679 164 154 144
-0.0270546427962094 0.2144058617067564 1.0492446017479544 64 35 1
0.5310211622582112 0.1627844104727679 1.3069702389948770 161 154 144
0.0350512993943001 0.1780313615996361 1.0554846687484063 122 90 51
0.0036663568124926 0.2915812965163795 0.8885679142310781 164 132 71
0.0875330566752126 0.2177137444271674 1.0525038199306644 63 34 2
-0.0497389246318921 0.1606985409686899 0.9430014324767954 131 99 48
0.0112120370054628 -0.1947943294807490 0.9813014859847901 89 57 36
0.2488981469829182 0.2375923633557671 1.1035281940395225 91 63 16
0.3904370991571395 0.1773385547189854 1.2649058077381259 117 89 42
0.1072637658207097 0.1962950531015926 1.0569384311370473 124 92 53
0.3161041441327187 0.2694092442164583 1.2271256798137036 59 32 2
0.5842741113975664 0.2304897044387634 1.2788743372158129 211 202 195
0.3583695440707342 -0.2185179859716026 1.2073791855003706 83 53 19
0.0661548444266761 0.2025365467159342 1.0529154155831641 138 106 65
0.1129422965184347 0.2038785654555120 1.0616892185829279 124 91 40
0.4338433373247664 0.2056761334994494 1.3062828605267844 119 91 52
0.1393932034418168 -0.0877222630437806 0.9899622946406826 90 55 13
0.5912703984786821 0.2407937123844538 1.2859648245527471 134 128 116
0.1317693080005032 0.2089697966063632 1.0607080017376538 78 48 14
0.1377391884761954 0.2530729179250809 1.0636929357575053 104 80 42
-0.0102613515891991 0.1680074511659135 0.9953086592624093 127 95 48
0.7218778906086530 -0.1266644174616028 1.6593060050618438 210 207 200
0.5876703630479460 0.2493060113362092 1.2856601884495054 189 184 178
0.2712916684894244 -0.0376422781321174 1.0254361100010021 82 49 16
0.4609574377186796 0.2755728930427489 1.1604687609665048 143 115 68
0.0627493635244835 0.2202212862081486 1.0600251935514788 120 84 48
0.5823157685811934 0.2188581905232420 1.2931222997631877 168 162 148
0.6973190852848119 0.2966934354813133 1.2356330011017094 221 213 200
0.5060378847976719 0.1312051348386873 1.3158099519665041 162 157 151
0.0186838224676353 0.1598688352206482 1.0736142036625169 116 83 50
0.5889833550430228 0.2340944236515364 1.2976240226957423 208 203 197
0.5552394547134709 0.1914522435296322 1.2948585484769524 168 161 151
-0.0208002978258012 0.2711526873050998 1.0059469078811893 66 46 13
0.0258566107554725 0.1830893608797440 1.0613118440365106 54 26 2
0.6784574473250443 0.3272199069364643 1.2305665569522615 165 161 152
0.5482520790796011 0.2427186863972568 1.2941409776301638 189 180 171
0.6229727606981427 0.2398048897633980 1.2753886640608318 159 152 142
-0.0206441250326626 0.2744970999935453 0.9845459304412010 129 97 58
0.0692889538100306 0.2119645303942190 1.0541291574946472 61 37 9
-0.0221875352480773 -0.1977072531765200 0.9866302253968945 155 130 73
0.0642853989768174 -0.1444403111402236 1.0170646124974543 135 110 70
-0.0124241439238508 -0.0785591211049549 1.0356684429828724 120 91 51
0.5785551815511277 0.2689584457449436 1.2895877859031155 174 168 154
0.4502642477847885 0.2797189869675933 1.1566209840801140 94 69 29
0.1680986259038093 0.2735861595551249 1.0644488374498551 117 83 38
-0.0564301561262789 0.2946912490553851 1.0235068575383539 123 91 50
-0.1476612249016067 0.1714414312808815 0.9802651405595822 89 67 43
-0.0383110144419675 -0.1879145956578190 0.9925399050615963 158 128 76
0.0155143098396095 -0.1522662579082934 1.0074411452203813 101 62 23
-0.0486170235711172 0.1725494397449673 0.9469028436148370 75 43 18
0.0104330080567646 -0.1296544224430466 1.0222910711419881 44 26 12
-0.0600450687778185 -0.1492391180994748 1.0083967629011958 104 78 41
0.6797678461400304 -0.2117485698522596 1.6609919223030989 223 218 215
-0.1338204523020460 0.1782438120466448 0.9622511428873559 98 78 43
0.4491226920440906 0.1106092063411122 1.3094406281200526 124 109 68
0.6560635451594964 -0.1483676948688089 1.6292609513485081 159 155 146
0.4898203803129454 0.1419722021762701 1.3007154209826186 212 211 207
0.6033065936645772 0.2309189929290953 1.2772423289122219 141 139 127
0.5825002155085324 0.1447885739287555 1.3100296157630067 189 189 181
-0.1207592466292360 0.0480995110170083 1.0535370154067834 146 117 75
-0.0915193160665850 0.1849871556390274 0.9684542121911804 57 31 4
0.4027791027318303 0.1655567092162008 1.2671270896614850 86 58 21
0.8020165605666221 0.0850669344196052 1.4935012463953679 209 200 191
0.3598543826851770 0.1749162787049207 1.2525337572352988 49 27 6
0.1081901789689501 0.2311301350343468 1.0641961632118706 69 40 10
0.4592853187030735 0.0891271628546300 1.3195423931096451 227 224 219
0.8445859739762647 -0.0112513241432417 1.7366611731432553 156 152 143
0.1434836642549186 0.2331776739757206 1.0657865252141452 95 66 22
0.8299192504435060 0.0961595737509586 1.5059997969229415 153 146 138
0.1165083720628200 0.1699136437504185 1.0565969550743088 140 104 52
0.4792417221860700 0.1692430837146326 1.3096283676472780 114 99 76
0.5678898851487344 0.2305685770041116 1.2919241916287512 210 206 197
0.6758933719030563 0.3092550849699719 1.2263268183991320 223 219 208
0.3755359931042500 0.2331387144756284 1.2479217172775476 102 40 19
0.0507738024677797 0.2067804624212876 1.0558715711935451 56 30 5
0.0356863657795832 -0.1484139758304102 1.0294424839586243 34 25 8
0.5604514252048941 0.1664389133841537 1.2956430274195505 217 214 207
0.2379411483688368 0.0054441835733010 1.0210907362513177 136 104 47
-0.2980169852375000 0.2283895981705125 1.1545850513219711 177 165 165
-0.0122566929542704 0.1384135739663871 0.9909747694136924 125 87 42
0.3666164087066617 0.0105468290964812 1.2303342205803398 218 211 203
0.1981289248441960 0.1555069708573894 1.0475898841857858 194 49 46
0.1887005586562813 0.0179808550261080 1.0360233786782103 12 11 7
0.6051027608197378 0.2522503272197570 1.2706020108456861 196 193 186
0.1510722206290466 0.1777041994172458 1.0654717561842595 122 84 39
0.6283482865823408 0.2629530788440567 1.2626773160797524 200 201 193
0.6575304507685947 0.2840724174247367 1.2341695665386383 209 198 192
0.5672086631012985 0.3122783593523388 1.2299441948431427 45 50 43
0.1163128264585839 0.2138892141608021 1.0606530068366236 116 84 37
0.6605445525086915 0.2584191518976295 1.2358596940475930 178 168 156
0.5652749248338607 0.2755802053493634 1.2370495905506176 60 57 50
0.2824076805908458 0.1827503205465120 1.1503588074503484 153 131 82
-0.3846687245285590 0.2086057102987404 0.7326179846480176 128 142 155
0.3384643452415825 0.2196677923712525 1.2149784325582014 53 26 17
0.1256564044819062 0.3216142774792423 1.0382784559431502 164 137 82
0.6081310803558612 -0.2243943455077501 1.6473026122424113 231 226 223
0.5177419253802935 0.1856680919639584 1.3078950225227266 196 189 181
0.2341295027798771 0.1634994116843385 1.0885955070649378 65 41 13
0.0660121658255917 -0.1337815432631712 1.0179339923576569 137 103 55
0.2198981709164134 0.0282978376779407 1.0286975439584292 127 95 44
0.1367380804076112 0.2234392831672544 1.0695442934302304 123 88 48
0.6504384532389674 0.3138771675176207 1.2418139528156016 116 103 84
-0.0087455233072991 0.2802503071295346 0.9605011373411723 145 114 57
-0.0538184395573625 0.2976831485309972 1.0032906562039352 121 98 57
-0.0767695808933999 0.1656727764409676 0.9487946159521817 100 69 25
0.7281775914587038 0.0628664293063811 1.4304944629164653 175 176 170
0.7655314628586167 0.1264720941398392 1.3557144539956936 161 162 157
0.6716179809825233 0.2772724499834748 1.2278766624260558 182 178 166
0.4468779327735506 0.2741624735170666 1.1641363818518462 78 49 9
0.0534154926407745 -0.0627920937519645 0.9943243244918963 126 91 51
0.2194274224671020 0.2652230907479786 1.0888149264232305 82 56 21
0.2447211397570533 0.2767511862212570 1.1070045887210385 75 55 20
0.7634832991511985 0.1184662741772730 1.3732507721062455 160 166 156
0.3444495765471435 0.1648913393825769 1.2649152600699178 129 96 55
0.0245925563563210 0.1709951461712172 1.0644454722012415 127 94 61
0.0208792339190060 0.2102616949892195 1.0623132943810625 107 78 44
0.0594721805970233 -0.2030772225975612 0.9925790524124967 154 122 75
0.0999246376406110 0.2052635850562521 1.0555535022736864 147 114 69
-0.0669175673399793 0.1959837838433852 0.9584596300203571 128 100 63
0.1256967171747636 -0.1085958433622110 0.9921144709217373 111 73 24
0.1650018718374412 0.0119833628453221 1.0174194030329426 116 92 48
0.7648415062561394 0.1022178113271765 1.3882820287845079 220 217 210
0.3247206299879909 0.1342573860802492 1.2351856409884199 139 101 54
0.3323042935951555 -0.2205197062292343 1.1863804261467430 112 80 31
0.6980556498450916 0.1623235590867836 1.3113846251838377 195 189 177
0.0524150466715053 0.2377479043338050 1.0418519699495441 121 81 20
0.0673598428710031 0.1800763134145976 1.0570744680935349 78 45 10
-0.0103438907442180 0.2682254642089871 1.0091629136779265 67 37 0
0.0813607916395905 0.1792495547108306 1.0555797526300565 136 105 58
0.0572288408563145 0.2352459359159965 1.0481221177014064 73 44 4
0.0673477227104712 -0.2062599291302675 1.0026810985266419 100 69 25
0.0874186889408055 -0.1429804760654774 1.0175913109602062 112 77 39
0.2294508850928288 -0.0246504965426681 1.0024020244459517 119 87 48
0.2634957697540626 -0.0136093679675514 1.0407820668805172 59 44 11
0.5677318072787965 0.2025920375385851 1.2998319720034390 171 164 156
-0.0386523228091652 0.2510064255263941 1.0300129117049250 74 46 9
-0.1192470565290456 0.1494154261327836 0.9533695040371485 78 55 14
0.4018199009796767 0.1851917133518011 1.2803644304400907 114 90 42
0.0724624392496594 0.1485640331303669 1.0756183391518708 52 23 0
0.4547867251797614 0.1981211563607341 1.3111665852622223 108 85 53
0.4004600758730808 0.2099968892803908 1.2721092760183328 116 95 28
0.5420679217946941 0.2574304779389596 1.2452826276580673 120 111 96
0.5444141012100960 0.2855374519260465 1.1956868471957671 145 122 78
0.1751144769233507 0.2569823137844530 1.0569612722470709 117 80 36
0.0163938741110324 0.3054347948040518 0.8867251722531398 109 78 32
0.7430954541101003 0.0883345950749305 1.4200514207498551 197 193 184
0.0080246109462328 0.1322220496400278 1.0443518485315881 44 31 12
0.1753939662369092 0.1929672909661045 1.0309750769108894 70 31 14
0.0807424041448407 0.2001643171940841 1.0542516890002944 86 57 13
0.5502417726604616 0.2883546922552085 1.2190075662435367 151 133 85
0.2771336924042617 0.0750560892727954 1.0179230757991544 116 88 49
0.1293676479298926 -0.1188872271468830 0.9984195195289968 166 131 65
0.1111771507804193 0.1830148971364189 1.0531298390886428 65 41 5
-0.3644530868424857 0.2253423717208082 1.1925618854731102 170 141 145
0.0626510136945661 0.1794390603216725 1.0580833438204331 133 99 61
0.1207492795962167 -0.0310011536810981 0.9979828896829446 58 33 2
0.1244387207738391 -0.0395040259323946 0.9901036890389362 67 36 7
0.3220920920212213 -0.2031373413002123 1.1818248897532098 163 127 91
-0.0014434734293378 0.1152334221489468 1.0396994773781763 119 87 40
0.1030174652724319 -0.0458435605965664 0.9880859722073413 57 25 2
0.7718793782675614 0.0822592638492316 1.4522143393796609 208 208 198
0.0689377044935919 0.2373277759596547 1.0556291160644089 134 94 59
0.1282891707868530 0.2347418634327016 1.0593125014593001 65 36 2
0.1022117120285913 0.2390000741338597 1.0621327670178009 110 78 40
0.2650399343546709 -0.1330302393245294 1.0317929456422597 115 82 29
0.1619318059225495 0.1002554969686087 1.0557605347883219 152 32 33
0.5452037911693929 0.2566193557577979 1.2951498674824446 67 63 36
0.1201916974645937 0.1943331508039878 1.0537992406267962 82 48 10
-0.0365300858471145 0.1754621400746965 0.9515898452421204 126 95 48
0.0026389644067177 0.1769475092837489 1.0238092354772452 62 40 19
0.2962951458278979 -0.1819627382355380 1.1214932425201212 176 150 101
0.4159402898002149 0.2322232870233088 1.2931895316180617 146 119 66
0.0049376909782678 -0.1541728789061336 1.0084509932595163 113 80 37
0.3504184629870243 -0.1957032100415149 1.2193113002041160 83 66 38
0.3073393867484635 -0.0182285749051326 1.0955275930900628 111 87 51
0.1126455718453795 0.1687305586707417 1.0352443877739175 112 75 30
0.2570458188995386 0.2175337157511103 1.1218698801201297 136 110 51
0.7617637053598878 0.1221034653937635 1.3681466873581063 205 210 204
0.7364569009042110 0.0548862376271040 1.4296372978970744 161 171 163
0.3078041690328118 0.0907419813196447 1.0494433057869541 130 107 65
0.5374767435271383 0.2827531324183699 1.2235238820249672 123 101 44
0.0862664872609405 0.2444329736462992 1.0636795006061748 81 45 9
0.1023026421182897 0.2361050607713315 1.0634693638845720 106 77 45
0.5265272215583892 0.2818094510005766 1.1952169201009595 162 139 87
-0.0175416609464195 0.2113806916868955 1.0880467998609358 68 37 8
-0.0469161018262410 0.2409814627571958 1.0560907964085400 65 42 10
0.4108021075706445 0.1606991705032152 1.2832429706622168 83 55 18
0.0553037478059453 0.1667860843728648 1.0628189957578582 75 42 7
0.0215444783817289 0.1890398241212284 1.0612637930769577 86 56 28
0.0924020633426229 -0.0573726752378842 0.9899656654255674 56 27 0
0.3048679291934963 0.0775256133799238 1.0440444557631439 71 54 28
-0.0079376023325636 0.1356026748561282 1.0166020589957749 130 96 50
-0.0021447486542102 0.1647668214040206 1.0194790980290536 37 18 1
0.0053694381143683 0.1840861078481182 1.0709799401500810 31 14 0
0.6000443614449554 0.2141600903671511 1.2808609318941964 211 202 193
0.5514464531336651 0.2079600594151643 1.2944347978691264 203 201 189
0.3216122776605371 -0.0024048334600899 1.1215620431105069 103 74 44
0.3116201599654127 0.2230264497024867 1.1950699696098857 120 91 47
0.3496674024880081 0.0470237413073641 1.1258595402783063 158 139 96
0.4219764115329723 0.0765498371804793 1.3179238741685817 140 116 88
0.6111111327284082 0.2713893841029290 1.2707408201040502 115 118 101
0.4691163619588076 0.2466018337122736 1.2840393568469126 158 136 87
0.1392822975664531 0.3094522836839171 1.0686523083307891 32 20 6
0.1758846085707388 0.1957721429818486 1.0314530432429319 67 25 9
0.1712713532082370 -0.0813242354331755 0.9888607406167895 81 47 9
0.2683938643058896 -0.0273705105961943 1.0216096250416564 137 106 62
0.3557081818038979 0.1697220224092817 1.2852294936445043 42 29 13
0.3083031168244402 0.0902088288926187 1.0520825528766273 130 104 67
0.3546877347473033 -0.2109213753250593 1.2117119218105179 143 118 77
0.0324505582614412 0.1307305086762292 1.0667481180673208 115 88 41
0.4146084201971204 0.2087853320354135 1.2808148147043221 73 52 21
0.3444579111861404 -0.0479316254721706 1.1236136902131060 166 144 105
0.7549684221577440 0.1215312287202093 1.3522298296568840 190 197 190
0.6414852312532434 0.2901038938784240 1.2444553453484928 138 134 125
0.4801672501165297 0.2783946791805663 1.1721283158962992 164 138 89
0.1054386191467378 0.1874481693952051 1.0551023878697345 113 80 47
0.0557175602830586 0.1810999083291293 1.0519265841631071 137 107 53
0.1237522787115964 0.2091204900744241 1.0568870429084645 134 101 50
0.5398853918393409 0.2698318567283267 1.2349707893314008 167 145 108
-0.2325146196271086 0.3265150177150549 1.1133211326987311 115 98 90
-0.0663698690561062 0.3292429007440238 0.9739284493352787 87 72 39
0.1388097328112105 0.0921723425278948 1.0724695547892511 172 33 40
0.3320177747295541 -0.1646306513113860 1.1852519885426100 154 128 77
0.3621963927680726 0.1743518547318824 1.2688679328843433 43 28 9
-0.2583810246345268 0.2412846880690949 1.1342567936518675 25 23 24
-0.0571306071076507 0.3052977596874464 0.9885327870256633 114 92 55
0.2377192515004066 0.1496445545264314 1.1025600133925235 56 39 21
-0.0094578164200487 0.1763993232105879 0.9917781640972735 125 94 50
0.4170103974326614 0.3179102308848178 1.1508768969781498 88 67 24
0.0773070382578279 0.1768234507419275 1.0547971103585549 83 51 10
0.0600930724004607 -0.2067869436578574 0.9883807489993395 114 83 29
0.0174355558618381 0.0855880324705213 1.0553919773095564 94 65 35
-0.0310640398771545 0.1710686621471595 0.9511233985375199 146 113 70
-0.0657334875567979 0.1960970442934909 0.9574397748827871 127 104 62
0.3674209596922374 0.0928207450930149 1.2859239135078064 102 75 28
-0.0354209420588208 0.1679810894469440 0.9533597220884584 66 33 0
0.1152573643591499 0.1899083426588197 1.0546268835008290 103 72 41
0.0136806699199051 0.0906766716967737 1.0550555917246469 52 21 0
0.0260622216580494 0.2904448762389362 0.9045964918532713 99 67 16
0.1199691696292749 0.3364678123478412 0.9373111224861832 151 125 74
0.0803506467119556 -0.1832548532564870 1.0166482549488109 151 124 71
-0.0071772736989910 0.1476252306787549 1.0431096313900117 38 25 9
0.2659323229052646 -0.0476671309416509 1.0205792502897046 133 101 52
-0.0298163669778106 0.2191314722405569 1.0793364606188005 49 33 7
0.2574019506257765 -0.0459717686860776 1.0097572846736731 98 67 23
0.2230074326946251 -0.0329695042128416 0.9998639448301961 71 43 6
-0.0026266889627846 0.1146349881175142 1.0450170064371525 116 88 49
0.0938283744562635 0.2486295038920327 1.0645572692848149 54 31 0
0.0591946615116566 0.3213930723045180 0.8854113157628316 96 64 23
0.0459194878225542 0.3263202301956429 0.8814126233673157 102 74 24
0.5680522672097927 0.2439860774977767 1.2842499169851307 131 119 103
0.0167251276793146 0.3072149323798808 0.8952937266952661 93 64 32
0.0979785838805359 0.3239580811468265 0.9199659083692808 149 124 70
0.1946702468632059 0.1794643259332894 1.0253550919514847 195 56 59
0.0859529622709697 0.3137410788456024 0.9144142576153552 93 63 13
0.1200065490682048 0.3267450619322175 0.9348215683151498 107 81 32
-0.0502305488167830 0.2914018291122987 0.9964639115727419 121 97 53
0.2522903838303459 0.2073641024491975 1.1024539271360860 157 131 82
0.0616104937702557 0.2398898868746526 1.0482544719936013 124 90 52
0.2325336427587348 0.2729243498098524 1.0961014359000636 86 61 20
0.0628689200371139 0.3109902368558334 0.8881083094863934 101 69 20
0.0940004005474585 0.1960472773557265 1.0569713457429257 97 64 19
0.4565475429421401 0.2847402329495043 1.1562907218762237 91 64 19
0.0803753490975882 0.3172693163721833 0.8963625861944818 80 52 13
-0.2629165649963410 0.2838297536021082 1.1535466636219214 35 30 27
0.1023074718071939 0.2381498566345890 1.0578070952557843 115 86 52
0.0616552039002997 0.2267430938316124 1.0575258146554709 72 47 7
0.0994958755685809 0.3176296913865120 0.9240564716009571 107 73 27
0.4516381395655684 0.2896635539699905 1.1490787188863154 125 102 58
0.0345909274657044 0.3183302821863115 0.8788977967924336 90 55 15
0.0717792192357583 0.3154286542711905 0.8841896419373168 98 66 25
0.0300693607263660 0.3288561057331086 0.8878409454259530 149 117 70
-0.0473372617536009 -0.1183516608175953 1.0209086476138514 93 73 48
0.2953556876819936 0.1549541169410389 1.1605288874994208 83 28 8
-0.3317876143630215 0.2565691346344348 1.1767926979466812 188 180 178
0.3807607033511985 0.1643348023297131 1.2673652404512981 134 99 57
0.4215316696772918 0.2419788802656943 1.2959084845720514 148 120 72
0.2394839048292632 0.2245290673727735 1.0928301351749738 156 131 75
0.1592393066169356 -0.0931562070509035 0.9875497930546294 142 102 50
0.3375071726705967 -0.0525423024728106 1.0987525288459532 110 79 35
0.2050915574857073 -0.0295332429244355 1.0046691276649926 71 41 3
0.3612807871736209 0.0603150822640790 1.2945712459154006 165 133 84
-0.0200330742655483 0.3657059123678436 0.8743271719106960 127 102 71
0.1405291157355344 0.3623967192813987 0.9628477083398281 98 77 32
-0.0121421155284472 0.1727836697216910 0.9979047323342045 128 95 50
0.0850020410621768 -0.1647988556606923 1.0253757032753334 92 62 12
-0.3147539119532096 0.2599823588880975 1.1206296076986706 177 111 121
0.1088222270664809 -0.0995136735151188 0.9997509541002366 108 71 27
0.2468037231142559 0.2155358530420828 1.0983085518925393 75 47 7
0.0068663640190764 0.1627642620071314 1.0710454034029262 103 74 32
0.3048955252596987 -0.0097495647266292 1.0779021141552576 46 27 10
0.3007559410601153 0.1824588052349276 1.1708197528199100 139 108 61
-0.0081980094018766 -0.0233850678071020 1.0607118023898767 74 47 18
0.2375416166607971 0.1279441481088549 1.1677178814689682 60 34 17
0.0679870109848511 -0.2113866861626414 1.0022296655181546 178 149 89
0.4817269565608077 0.2667207348626664 1.1828874241056513 108 80 30
0.0066229699328670 0.0885853154725611 1.0455901894750708 69 37 0
0.0415892115307405 0.2045681188772280 1.0436307075294224 111 87 51
0.2646205534604129 -0.0561874137234817 1.0249272086559598 96 61 19
0.2564744203353143 0.2067877206290696 1.1046355964376633 109 81 33
0.0018922754768328 0.3568960532200628 0.8676958561219048 82 64 16
-0.0105887643003943 0.2682448066613654 1.0090961846386866 84 56 16
0.1132984031812281 0.3202859588159457 0.9245744637311021 94 74 23
0.1184632809317152 0.3285756652777447 0.9282123722034489 93 64 20
-0.0075852571653397 0.2031389086735068 1.0725225044907942 95 75 42
0.3452036326218946 -0.1571895712012401 1.2196059322412891 138 106 59
0.0913421448955596 0.2207367714066742 1.0585149093650514 65 41 7
0.3936160145207114 0.0461790079692621 1.3326094253826117 109 85 49
-0.2723565828880303 0.2772386265830610 1.1850119315514771 116 107 92
0.3120479013523343 -0.0312097257867674 1.0748163396473922 89 58 14
-0.3703200046148971 0.2311519387903969 1.1862445979323237 188 174 171
0.1221044074617500 0.3413101541328110 0.9349821650843300 149 124 60
-0.0042732476330569 0.1412902339204734 1.0683596976234682 44 31 22
0.3199764879717640 -0.2090369869178766 1.1806336441710144 111 77 31
0.0193072321702830 -0.1352497932696432 1.0386131221806911 102 73 43
0.5323102898449057 0.2817742545559218 1.2164804879719042 107 84 34
0.1299673382955249 -0.0273557942745122 0.9884261046422484 124 93 47
0.1096999946440216 0.2372171046078426 1.0604352719000192 60 29 0
0.5588120707233939 0.2814596943495079 1.3063080371142592 156 147 138
0.0769047979131542 0.1959801604534275 1.0574078175638721 144 111 60
0.1472447295469404 0.3950306323226679 0.9807490027553523 71 55 19
-0.0240875718366473 0.2722100712944185 1.0192887818300498 82 45 16
0.1365932544379863 0.2437035834979746 1.0652768772012982 60 26 1
0.1928799745167204 0.0062914258178670 1.0256032741822765 89 61 37
0.2036699759195165 0.0133197471365212 1.0246284394808940 19 12 2
0.3058424901619934 0.0111089352949428 1.1094121422824987 27 18 1
0.0455170833471213 0.2042443105290587 1.0602737940856195 46 25 0
0.3264364887817728 0.0902391839979623 1.2692135039210686 122 94 47
0.3981713265045831 0.1819233075011324 1.2674922206879449 125 96 52
0.0468119588433814 -0.2360030611061719 1.0113477800280180 156 137 79
-0.0130403440222686 0.2181105849053763 1.0587978781781886 83 58 28
0.1393700525937370 0.3581531329110213 0.9700711782204260 75 50 9
0.3681874779237241 0.3668453714033029 1.1624730213361558 105 85 50
-0.0560187480483128 0.2918921679861911 1.0140112194227342 122 100 63
0.0460737897671282 0.1255010740434417 1.0674877684313384 121 88 45
0.3907431421780077 -0.1196817139204859 1.6260520215248533 159 153 129
0.4151494280883836 -0.1110023717704660 1.6165047747896515 241 232 225
-0.0287991898073475 -0.0925367349286039 1.0469668599115867 75 55 28
0.6132801057098662 -0.2252332435156386 1.6597656495460285 231 223 220
0.3503681189066513 -0.1927911255944060 1.2444784084880796 66 51 22
0.1182239875587644 0.2989263358007996 1.0781042908285334 63 33 0
0.5137756489968024 0.2751457821669637 1.1881826750265050 134 110 62
0.3196779684517084 -0.0633607032332052 1.0711064343553300 83 49 11
0.5565434178163765 0.3187650651893005 1.2503272247747133 73 52 31
0.1968599843649157 0.0106075040053295 1.0245576869554538 74 56 34
0.2473417580426994 0.1806587980630200 1.1097474813559773 126 99 56
-0.0105343170653199 0.1760592704163421 0.9973400384245346 99 73 40
0.6165990513600940 0.2178879678780046 1.2811292997656827 170 163 155
0.5615024461299822 0.3279893418090199 1.2619377109883931 104 89 56
-0.0161222319914727 0.0078490236006206 1.0850950614856885 123 103 78
0.3336862941421205 -0.0043210590444309 1.1450490447519761 90 66 28
-0.3024572374206368 0.2751778368215709 1.1117720266905617 178 158 159
-0.0467438584213519 0.2048653197200316 0.9742823314484660 110 86 50
-0.0193445146824654 0.1917246679379607 0.9927856260290712 129 104 63
-0.0579462328257650 0.2825408122037520 1.0306658831658457 99 86 52
0.1458791915562924 0.1888061045719540 1.0557807631010299 77 38 5
-0.2720071066405605 0.2859808372769630 1.1612396186071483 26 17 12
0.5511065126167660 0.2897317539134105 1.2377989491787265 165 144 97
0.3210980579872235 -0.0016555022784478 1.1276094937115457 81 58 27
-0.0175111662402365 0.1360416474647502 1.0363360191467172 120 95 55
-0.0550092279921461 0.2631977753977438 1.0453746610675485 101 83 45
0.1548071400287465 0.3793399574804292 0.9987108091271936 145 106 75
0.3260725917550773 0.1362247161399478 1.2507956640090041 103 70 27
-0.0036416693829882 -0.0149569354547651 1.0528692081343420 67 45 21
-0.2279360216092099 0.2842587801144504 1.0070283566345344 172 160 160
0.5382734397764861 0.3220533818237712 1.2394663723972466 167 145 95
0.2536580207375034 0.1247955191356133 1.0830974552110069 24 15 8
0.7345518965828786 0.0670342396348748 1.4279276194830657 160 163 156
0.7346138779096786 0.0934356948395478 1.4126662028309043 160 152 141
0.2943117266752553 -0.1743526487993039 1.0970754522011721 129 96 42
0.2855245389137522 -0.0491524254401913 1.0302272760427238 82 46 10
0.0690335263380381 -0.2047397210323886 0.9998053751536652 120 88 39
0.0349596797515371 0.1722666980271789 1.0525825380442990 82 50 11
0.5314125019585663 0.2489754564745862 1.2932721118568691 103 100 83
0.0517975452834221 0.3294554220786821 0.8865708074646906 156 127 69
0.2468131251839904 -0.0308408070519124 1.0085848837362412 78 45 12
-0.0410171177722417 0.1968568976340501 1.0597345929575468 22 21 19
-0.2496870718881243 0.3088670396855021 1.1547224813628068 20 20 18
0.3253906707739099 -0.0124269969640259 1.3630202544568233 95 87 66
0.3248608034362270 0.0249385986231584 1.1798284035673345 114 90 52
0.3542475537208229 0.1581798207696104 1.2821416711763345 51 28 12
-0.0473837384760567 0.2285706313433754 1.0720116512608897 116 90 53
0.3332248503777582 0.1089000424511652 1.2743266350804494 69 49 25
0.2282536180484870 0.1957075981898768 1.0831197177380532 118 87 43
0.1661790822616433 0.0725311788471805 1.0442045434875982 51 20 15
0.5642317801384787 0.2243976306554500 1.2960388111563688 194 191 186
0.0149892559256038 -0.1676545842897266 1.0130268828500046 52 30 6
0.2261597958038252 0.0399061501860641 1.0298105085709126 131 95 43
-0.1478627027932258 0.2844526488396430 1.0700492662315018 14 14 14
0.7485416354827866 0.1221852291344738 1.3658532982844127 164 165 160
0.2017814137725867 -0.2050186115166168 1.0702014713126657 126 98 48
0.7564376435456147 0.0900823865043810 1.4331404690803378 190 187 178
0.3212971614642769 -0.1891718008687159 1.2029916931258342 93 73 38
0.3336499350621650 0.0873318031818667 1.2698021090799818 66 42 8
0.7526393137276494 0.0703543963376765 1.4334154342947072 188 183 179
0.2645108548894611 -0.1905720844597312 1.0863822816441260 113 72 26
-0.6404132205712229 0.2090433626458955 0.8567926229439941 168 127 133
0.1394523430974026 0.0919220602947737 1.0631891263324311 169 35 42
0.1643710927451157 0.0971096252784610 1.0522678495158764 150 29 34
-0.3021197233595282 0.2791624850239209 1.0871663882976583 150 79 93
0.5595882997498246 0.2818303708461635 1.3075472978275982 126 123 116
0.4125706769412928 0.3304339035296824 1.1481451606999447 62 37 7
0.4956468621784100 0.1817897938663590 1.3062469406986759 145 143 128
0.5483845214930756 0.2433123421102576 1.2929490438039961 165 164 160
0.5355867502297808 0.2681050693767597 1.2438829556957398 157 139 93
0.1250564346923741 0.4059428443577693 0.9298798980326537 74 61 29
0.2895291272145741 0.0098465795020918 1.0650322759925057 165 130 74
-0.2148308898640077 0.2667237307442138 0.9409198261302252 107 125 139
-0.8515455038100300 -0.1441350935630551 0.9557182160452706 87 79 60
0.3434303715578589 0.2054439059474965 1.2162172333716712 139 27 25
0.7423195189034644 0.0557924260156935 1.4409757894406920 144 151 143
0.7519311652021700 0.0622501842828798 1.4379365509171764 122 133 119
0.7716372737796587 0.0718991864413394 1.4561700819830636 148 142 128
0.7733833251230794 0.1206854411525830 1.3526249201583045 200 197 190
0.7805173381009929 0.1296599474292436 1.3472026588422843 118 135 119
-0.1974321866058633 0.2853860217905407 0.9422709570135659 88 91 108
0.7607050299114662 0.0754548887358786 1.4410813192158447 143 137 121
0.4589913289370149 0.1987066002478802 1.3111199705930114 86 66 41
-0.4889233061946953 0.1401897014686700 0.8122680309616663 107 115 128
0.3754411984223346 0.1878498309355322 1.2770909091177289 59 38 11
-0.2161297637947010 0.3411041909961386 1.0319160785863006 137 81 90
0.5431387752835762 0.2696609126426421 1.2999871423679619 17 17 17
0.3743597657353856 0.3601890836988615 1.1575565708524065 102 74 37
0.6577157369731534 0.2891718073774471 1.2451127102167809 188 184 175
0.0887331679120610 -0.1245486122894763 1.0109297406936066 149 118 72
0.1684620794010352 0.3575813244467603 1.1094239668362516 5 5 5
0.7846383210177093 0.0653051589746610 1.4752237313844585 116 116 108
0.7720401027252193 0.1306289272462381 1.3513982589273195 143 154 146
0.7502332919238405 0.0923480912919162 1.4291987674197417 144 144 136
0.7566671103315628 0.0971271665500273 1.4377174453527064 130 138 125
0.3268933758398876 0.0919897844021052 1.2722153397935880 116 88 51
0.7897563447909490 0.1026416145683949 1.4533274031463306 153 152 147
0.7817461763342047 0.1247830472003214 1.3549979081899466 188 191 182
0.7660503701859671 0.1176749649506757 1.3726529849363767 158 161 152
0.1464427737698503 0.3350273078605417 1.0180692497342807 75 46 4
0.7844171203952498 0.1185898641625318 1.3573443679065578 192 192 184
0.1273186895283169 0.3608367032703599 0.9704439650865266 49 33 0
0.5446309693935845 0.2967056788298441 1.2163613049029627 85 62 20
0.7886711433037996 0.0579057607365982 1.5413931910404268 125 136 119
-0.3300787198398623 0.2594112676623414 1.0741179887770014 157 95 106
-0.2592842903361883 0.3005148708788024 1.1618928554057739 70 61 54
0.3512602726003630 -0.0244486620917151 1.1637523467238504 73 43 9
0.3271663728608439 0.1453486251611605 1.2399539012447267 131 96 56
-0.2272354527303898 0.3128287222807393 1.0363192319155672 164 134 136
-0.1903631822034825 0.3017182399571389 0.9441114434492848 63 70 80
-0.1300480349345137 0.3650981825704195 0.9143903399734529 57 56 62
0.3332814120487733 -0.1754760197513097 1.2043509841831359 128 96 55
0.5505307495510027 0.2897362327552722 1.2623707736793981 133 114 72
0.3643539138040061 0.1701718598676086 1.2657503646177914 76 49 20
-0.0681593661729063 0.3943424470978191 0.7682388635903624 109 126 144
-0.0795765351142455 0.4218812751327179 0.7750091704110279 43 42 40
-0.0263126783255700 0.1786553700389643 1.0571220430180532 12 12 12
0.3104830931947745 0.1011225565187474 1.2183760729598812 118 84 38
0.1979192445632433 0.2019140851095202 1.0513352994423479 91 10 6
0.4069788095628387 0.2006883519792672 1.3080042909959255 83 57 24
0.2999352665741223 0.0596929807993609 1.1675358529562829 15 14 12
-0.1561208445691522 -0.1339643034271034 1.0709569299006243 153 146 138
0.6139944230731542 -0.2201967858023522 1.6499911007444910 203 198 194
0.3088395609660634 0.0269802467607572 1.1069787839174297 125 93 42
0.7694306187041492 0.1228642374334949 1.3479790862339043 149 150 144
0.1124071750634183 0.2192586759519765 1.0524856372400726 78 48 14
0.7862452363873973 0.1258729646386192 1.3480709470880685 125 131 121
0.7751131541215246 0.1014896747291810 1.4440142246174896 160 159 154
0.5464239559572082 0.2801008184339349 1.2255191983584597 77 64 20
0.7923217125083348 0.1140702858355388 1.3656840189929749 208 199 194
0.3555915072916824 -0.0615605245907601 1.1424068808670664 84 52 13
0.7789211779591502 0.1188111008326893 1.3578392242257995 134 139 132
0.3267799800128753 0.2629507698813823 1.2213199614663490 59 35 9
0.1094415696792095 0.2257268874051794 1.0540432110150213 78 48 20
0.3354353350724276 0.0014291618669364 1.2112931387037833 114 81 46
0.3327377958915659 0.1287574212696674 1.2952588518867205 59 39 12
0.3117256412191931 0.0188663197661609 1.1246276234652566 96 70 45
0.5499045328900999 0.2846661835689819 1.2100120877324458 141 119 70
-0.8516855726041279 -0.0102986354179945 0.9105523847211671 58 41 33
0.5675279709543382 0.2449030780551851 1.2753106111357093 76 71 49
-0.8631526835698555 -0.0233525154408283 0.9432859729986951 116 110 86
0.3535685265491772 -0.0607447839630994 1.4206045699633203 200 199 195
-0.3671842305878123 0.2442689249731409 1.0870308382117715 150 140 139
0.0271110090244838 0.0332006664341391 1.0437473729548039 62 37 15
0.1379443778826838 0.3172029649017897 1.0883666076381204 18 13 9
0.1567457214633422 0.3893046003416214 0.9847864996407294 83 62 33
0.2345417616270820 0.0409870307837063 1.0142051925722058 121 85 37
0.4301579393213247 0.2930358031414467 1.1496546973859343 92 57 19
0.5572834129131871 0.3330680909345844 1.2622905178306143 41 31 4
0.7475198882260509 0.0810948844441218 1.4353642467451095 132 129 122
0.0805577331024448 -0.1915121474633972 1.0026983471978785 136 102 54
0.3622085230825286 -0.0802303520136056 1.1699263406017439 92 61 17
0.7901704092453191 0.1174102994248945 1.3593001186029838 138 134 125
0.8342942023510663 0.1216210293776331 1.3875034453517354 159 158 154
0.2168413774079863 -0.2283387986342366 1.1444806179697822 131 104 61
0.3065209052327704 0.0270625307978043 1.1214343841037540 53 27 14
-0.3577944031827632 0.2108438671956581 1.0594301559010844 41 43 40
0.6197909777489626 0.2256287780577130 1.2757379550273595 188 185 180
0.8044737580413855 0.0989852987951249 1.4866342087415070 162 142 135
0.3774837855386625 0.1601553435110025 1.2706994670618157 110 79 35
-0.8983328616139307 -0.0439558980617126 0.9856536665102473 43 43 41
0.6150338012814701 -0.2348707316461134 1.6269607493956910 210 207 202
0.6105323507082022 -0.2357602904914669 1.6442776014778515 211 206 200
0.0200892987920034 0.1624568766241737 1.0720405155216675 112 82 44
0.4698548268877361 0.2449723263827196 1.2816175657089988 144 113 59
0.0471138947918666 0.3851827880679488 0.8731335452677245 89 66 32
-0.1149995000546982 0.2695826388431027 1.0430693524183496 58 48 46
-0.7726546263351173 -0.1408885426189957 0.8324567707799172 221 211 202
0.8349475597418311 0.1021152484994663 1.4299993898557990 139 134 128
0.7775127252207031 0.0679053795195289 1.4638038881873512 145 135 126
0.7498215539976982 0.0655675519195401 1.4221333231319524 145 146 140
0.7689319193349311 0.0887339931035021 1.4208491146470525 150 151 143
0.8421812404629703 0.1402163099737987 1.3571357103234827 158 148 138
0.8483519589408949 0.1226816912511233 1.4043792637527530 119 148 130
-0.8264639843061063 -0.1420997984492391 0.9035369584440935 91 77 68
0.8321174040435424 0.1064549125230000 1.4009614136234971 139 140 132
0.8421106717063070 0.1311002659486571 1.3807258599418095 110 130 121
0.7652954331471677 0.0747406985311523 1.4497668712791165 149 142 134
0.2091127933415089 0.0140810392550215 1.0198075312670858 18 14 11
-0.7814621116116879 0.1874793789069255 0.8634986366590145 82 48 39
0.3082730163282043 0.0502358043511937 1.1152276817307138 131 97 52
0.0703697605541007 0.1826584279051481 1.0784517582787938 110 76 38
0.8443732275621321 0.1095475044921206 1.4215887288576530 140 149 146
0.5504283427718466 0.2788015310107840 1.2326422376142385 129 100 60
0.5615528341801654 0.3178062381562926 1.2714169753458056 88 77 45
-0.0882539146559340 0.4515197868154471 0.7984670429476487 105 104 99
-0.0791649579433008 0.4581137459524322 0.7090128538177207 149 129 131
0.0258893628384763 0.4433755948695003 0.7840801795654671 174 173 168
0.5466454421802214 0.2108562302967780 1.2956799064267093 176 172 169
-0.0494264741730067 0.4588806853033915 0.7840463110183440 34 32 35
0.3224208539984957 0.0076045209176261 1.2651713734750527 47 30 12
-0.0655326555111209 0.4432354484351301 0.7690314407822492 135 125 124
0.3684314989660758 0.0478242644004897 1.3269688677978022 105 76 36
-0.0669228594162248 0.4462290645408800 0.7843547453442331 67 55 55
0.0235322218235214 0.4542558835557300 0.7618491463665691 148 137 141
0.0271958782468952 0.4566009645246054 0.7566177344946067 205 193 193
0.0410091651629825 0.4585080644518236 0.7648417672935740 131 115 118
0.0367501923984770 0.4597374692537914 0.7563063600155753 99 84 89
0.8401149145841551 0.1227711962764228 1.3945370522038627 197 197 197
-0.7989689573674740 -0.0974602755039125 0.8093516509849208 150 142 139
-0.0769275419288796 0.4421413086487673 0.6948984583398163 48 48 48
0.4480781324892771 0.2129359184105931 1.3009419089066376 35 28 18
-0.0032325071448939 0.4629515899646386 0.7196521281171241 187 178 169
-0.7964257339640646 -0.0667528578907887 0.7947977027069640 76 24 26
0.5490332896907290 0.2892303656853008 1.2656259314537277 118 95 54
-0.0901703593560194 0.4460703365221029 0.7271369386666673 33 29 30
0.3095102688039857 0.3384082870489709 1.1883590006562550 4 4 4
-0.7986240358460648 -0.0440203249906939 0.8347464548877233 123 113 101
0.1501528164789673 0.3374727571218146 1.0289244467349932 83 57 22
0.7793996594059432 0.1186957737113972 1.3561533245260631 109 128 122
0.7503667795382012 0.0569657591567085 1.4423106742830611 171 172 166
0.8715208178943471 0.1393909786114422 1.3794135660771911 137 135 123
0.8804704230552882 0.1370769117635075 1.3883666593955435 154 144 142
0.0187090531670591 0.4592392100684722 0.7504547771640158 118 103 108
0.7396556897477220 0.0818695040537952 1.4164357280031978 147 134 128
0.0432806539616544 0.4543737750825678 0.7759090104714571 98 93 99
-0.0185269098814658 0.4803490540838772 0.6894306530823556 151 146 142
0.0153200742690740 0.4634908264806676 0.7390657968287359 99 91 88
0.7573087225408272 0.0965120829952701 1.4350842253328449 101 122 107
0.0544348979603750 0.4998441544639363 0.6994758890160699 111 97 58
0.7747083936811707 0.1256853616950695 1.3492578487360318 181 182 177
0.8031925039617746 0.1184729544358544 1.3516847406906551 126 116 114
0.7563295730486441 0.0905932226175497 1.4332524318236202 171 172 166
0.8034147110987669 0.0997494196879976 1.4913257795541426 158 119 124
0.8564784493515307 0.1154246863183818 1.4238559468179732 102 114 112
0.8610740939217976 0.1233869014528284 1.4063254444815514 122 135 125
0.0078266120154169 0.4720275972562281 0.7160201833073460 182 175 169
0.5477756633100144 0.2806064846100405 1.2254253685108021 73 54 14
-0.0141625024957815 0.4853460623746030 0.6842307444114648 200 196 193
0.0256642494001965 0.4779204730367111 0.7207660878912393 196 194 199
-0.1895275988639714 0.3089134633464838 1.0450008140229132 63 33 31
0.0535848580218020 0.4987389576679279 0.7033628391808071 158 116 76
-0.5164155915831673 0.1545726175149010 0.6547696561270178 142 97 6
0.0331658825852872 0.4938608750702284 0.6927508575308985 196 194 199
0.7562104894512638 0.0800570275171567 1.4346193610539058 142 135 127
0.2580424602278004 0.2453759172221217 1.1110925993720768 44 20 0
0.7930250213940594 0.1147660192299033 1.3627344760002342 188 183 179
0.7527100441207005 0.0936790213472124 1.4299868960803568 104 110 106
0.7796724828926724 0.1244194657024008 1.3507850380933175 109 130 121
0.7216950579489391 0.0504641493660540 1.4348664525529071 131 143 131
0.8103820543470035 0.1216954963863942 1.3544645112085176 151 143 140
0.7286236350493245 0.0623029060675016 1.4302363883134821 113 118 112
0.8304449481340227 0.1130744462613770 1.3957905540194437 132 136 137
0.0299862999235503 0.4556550036774843 0.7566054157100782 184 172 172
0.8423408688717152 0.1176284679260814 1.4044549148435370 141 149 151
0.8340212511547442 0.1226132249135336 1.3886764589156249 122 133 127
0.7820713868524971 0.0672323372370282 1.5210798794350568 129 137 126
0.8467059847549007 0.1181397830656727 1.4069912499478641 173 178 174
0.7598098514720646 0.1012051666681015 1.4219378450132047 129 136 128
0.7603730189573380 0.1079898051772730 1.3774196988288998 150 138 140
0.7759097989409366 0.1088680550029220 1.3837167440933871 144 134 132
0.7899176452906331 0.1015763858289023 1.4542634162002086 136 140 139
0.8844523705944851 0.1112552475534343 1.4957068263561430 132 112 111
0.7490489583648982 0.1229712631949866 1.3642859245771004 119 131 127
0.7698828611115218 0.1232754097368985 1.3487645608402874 129 136 129
0.0142123767702953 0.4660739042267230 0.7346209017412915 180 170 169
0.8471835522301355 0.1036487790313463 1.4326349482032401 124 136 132
0.8153540979253616 0.1218876905497144 1.3620138094066077 150 136 136
0.8159372145581041 0.1278948290409183 1.3545075354102185 151 142 137
0.4663719259263995 0.2762683983464522 1.1643878812842645 86 57 25
0.8930695098786078 0.1278314459134945 1.4937281001019305 87 108 103
0.0340163017392263 0.4575367809251005 0.7629396160340907 183 173 174
0.8985554037515682 0.1408534403080632 1.5088334403828165 109 108 104
0.7497082849350951 0.0558248248729259 1.4537475061559795 136 138 133
-0.4886558314598065 0.2105588060858137 0.6649909657625434 85 49 0
0.3732248903959159 0.2077883864732980 1.2558528688753525 39 16 0
0.8304499826468598 0.1075382002938059 1.4072817299255229 93 106 99
0.8339107247687207 0.1154950956905578 1.4012435809608508 182 184 181
0.0437807579437659 0.4432977671207622 0.7933732452110650 19 19 21
0.8415054020488335 0.1265696364679885 1.3872828543421705 184 185 180
0.6192464726082588 0.2269577672429775 1.2748005017755102 179 175 172
0.2475671859513816 0.2553444750094692 1.0996453152990653 57 40 12
0.5457289710454956 0.2819233901807877 1.2649221261590959 119 91 54
0.8911784749192031 0.1331560422304610 1.4132615264940895 152 134 132
0.3399332861346308 0.2267643072329288 1.2129355137455440 47 21 8
-0.5073171049881749 0.1867644028137567 0.6661925763528439 147 104 10
-0.5080224285356403 0.2282399182819596 0.6825541377203282 137 96 16
-0.7947795747307195 -0.1265464516405164 0.7799849617063621 56 62 62
-0.8166780080315705 -0.1473545278213549 0.9009428311436432 87 86 66
0.7849003543759875 0.0672851105231313 1.4719810475885711 151 146 143
0.4016184146722157 0.2963987242157717 1.1600342059864797 109 85 51
-0.8839448251642349 -0.1414446196883456 0.9696539218623057 56 53 38
0.2665745461169986 0.2280882367724745 1.1055852004524345 67 43 9
0.7525938271971581 0.0840565962539575 1.4434409199232241 128 111 104
-0.0564045298975007 0.4656846451719578 0.7640844844557588 137 94 103
0.7517548456690584 0.0989004028278510 1.3790639785325516 138 133 127
0.7686606637157217 0.0991920822706926 1.3946307382197718 152 141 137
-0.7884436216058230 -0.2133120987300015 0.8177540865574030 186 176 166
0.7599717420372630 0.1253267422033610 1.3467639055207805 138 143 137
0.7741331250435362 0.0685504260799321 1.4665116962332947 116 104 90
0.8380801887128452 0.1017087539832789 1.4143527898045136 144 150 140
0.7726810094986509 0.1301862710976537 1.3467299278360609 139 141 138
0.7382611938068634 0.0844093405882258 1.4241998493072898 130 116 113
0.7512518180149749 0.0978252041993229 1.4286284639865112 174 176 165
0.7832988032430667 0.1178632237060707 1.3576690077830069 179 180 175
-0.8595747361152241 -0.0823824152241618 0.9604742560721033 105 92 83
0.8191193696193049 0.0957338780163750 1.5158603021956547 145 111 101
0.7520183211126943 0.0702080998829387 1.4357994466289739 166 166 164
-0.0536379796005468 0.4639970650997221 0.7555244444144786 139 98 102
0.5775704542316783 0.2340262725220698 1.2761469050092231 156 153 144
0.5913494814151184 0.2449318065079506 1.2743437682575844 144 146 135
0.3529596170892645 -0.0183549064624476 1.3638476332828440 177 173 170
0.2862670744250864 0.1088499538597669 1.1799399898786485 175 46 41
-0.8498120231699754 -0.1921852325390645 0.7646026153355926 63 53 44
0.7591861226361478 0.0759281563637843 1.4425885701133674 103 106 89
0.4964545674286658 0.1805257673443020 1.3001496479004795 28 24 13
0.2901696234158476 0.0874225902258612 1.0346372464261357 26 18 15
0.1965473024066814 0.1380135861885834 1.1171464487812353 17 13 10
-0.0227041759402211 0.0023487104448416 0.0039836907117431 0 255 0
-0.0191081294842720 0.0063043530523349 0.0029579650753624 0 255 0
-0.0106317459954535 0.0146618090289241 -0.0064882287900467 0 255 0
0.0038732573569335 0.0106653091763324 -0.0111981300306913 0 255 0
0.0235095015816734 -0.0015246495754215 0.0024786114229001 0 255 0
0.0551877310207459 -0.0059494827227343 -0.0071940822845440 0 255 0
0.0804971504050019 -0.0062879745535017 -0.0067731445630128 0 255 0
0.1039381755934064 0.0099517960939002 -0.0005319596534187 0 255 0
0.1423801897231935 0.0005437985787495 0.0044952121211544 0 255 0
0.1664251896801426 0.0104010130572346 0.0293701888978693 0 255 0
0.2078625074193897 0.0029705026191485 0.0245994936910324 0 255 0
0.2668621892804539 0.0071954752320723 0.0163587797520432 0 255 0
0.3220378733273402 0.0097429797912839 0.0049077650208628 0 255 0
0.3990147440741330 0.0058785134343149 -0.0023678988257552 0 255 0
0.4903760425891810 -0.0023669923686116 -0.0085076631528912 0 255 0
0.5796050376763232 -0.0150154799475122 0.0017338280637171 0 255 0
0.6635482425464860 -0.0244393316303848 0.0096349200252915 0 255 0
0.7453908934078813 -0.0371061320102012 0.0337695472426055 0 255 0
0.8176329568244389 -0.0534478108054341 0.0755037944419744 0 255 0
0.8952608668663529 -0.0580899425289720 0.1178709565976622 0 255 0
0.9601948051325870 -0.0724415030478928 0.1574626115791890 0 255 0
1.0379057104503342 -0.0822499921854389 0.2082566880625238 0 255 0
1.0973418720369457 -0.0867453596630888 0.2537326603190034 0 255 0
