ply
format ascii 1.0
element vertex 371
property double x
property double y
property double z
property uchar red
property uchar green
property uchar blue
end_header
-0.0357146487487000 -0.3351945990675568 0.8626662303493100 84 83 89
-0.0434283739195875 -0.2878267320061053 0.9733477592472120 225 226 221
-0.0532225238927115 -0.2689752665261473 0.9449378213582126 76 62 51
0.0036060635515436 -0.2567832899769421 0.9684700186565186 98 155 140
0.2310844847959539 -0.3869374376808072 1.6183770957486767 39 91 78
0.0247188630900943 -0.1524919188768687 0.9480191664519250 47 49 46
0.3593700652912304 -0.4356472133278184 1.8005967986721227 97 153 142
-0.5208033449389428 -0.2427095328103296 1.4121276781325252 49 83 85
0.0226591054459306 -0.2007490217588667 0.9697270277553511 99 73 60
0.0702868443734604 -0.1500652602441771 0.9535280005040669 38 47 42
0.4576672883227222 -0.3257923633040424 1.5294866325820464 39 87 73
0.3130706754718144 -0.1595207581938647 1.2979566606539099 120 152 141
-0.0060864595928259 -0.1019141948385540 0.9796135333679822 119 85 48
0.0408209684089406 -0.1640211081761585 0.9380185757499662 39 54 49
0.5740939806298911 -0.1504988459641866 1.2617150591023985 129 160 154
-0.5444649821350440 -0.2682376419552397 1.4543044742570612 105 128 118
-0.3266830704198207 -0.1655559884908654 1.3426290035216260 56 106 115
0.6531495618975433 -0.2642689832542964 1.3453519034404002 108 158 149
0.0701120235986945 -0.0691585928673800 0.9654256430574559 74 75 61
0.7102260676907559 -0.2540973544453402 1.3399754990414505 89 142 124
-0.1843140836087353 -0.0775728695609847 1.1003238665772448 72 62 52
0.7357624022124787 -0.2522774467709668 1.3474346394180130 113 154 148
0.4149965197172508 -0.1006346777330090 1.2275671779735575 89 133 118
0.4603971505032758 -0.1206675046284198 0.6996303016108003 95 137 127
0.4753477042297307 -0.0209747195361779 1.1169580579555998 117 151 135
0.3217319614160910 0.0505120514391654 1.0533199388562673 96 151 132
0.0818549088432156 -0.0571197816958648 0.9165297228814319 24 28 27
0.3340518206510835 0.0591903322387126 1.0428101299598544 166 183 177
-0.2753566676007153 -0.0712734833492718 1.2004912013055713 80 123 106
0.1594551708706021 0.0689276407831924 1.0368745584664636 124 167 150
0.3030503762087040 -0.0676209793700750 1.1924541195978866 150 173 163
-0.0186470614081109 0.0908787569549113 1.0455808218354774 178 194 191
0.5460853737072303 0.0042064103025784 1.0830270705110869 126 158 143
-0.0664399003079815 0.0390211394896437 1.0843847720395192 17 38 31
-0.0328628681792976 0.0674950992516230 1.0530090078955774 118 166 150
0.0108120947185604 -0.1496107970796783 0.9593724890414712 118 80 44
0.3912839859791160 0.0780274143890002 1.0138409745276706 170 194 181
0.3699512438763873 0.0878797551260190 1.0025945861621914 119 157 142
0.1938649131167266 0.0927592985995379 1.0171161350027234 169 197 183
-0.3442982445418474 -0.1920673132993315 1.3875602551662538 134 146 146
0.4091799576962057 0.0989521779125203 0.9777207255762360 106 146 135
0.4067020502379136 0.1120807052063697 0.9643480373731312 173 188 181
0.4265471718431574 0.1202102179346053 0.9371600172186446 114 147 140
0.4425043156819028 0.1313159262994648 0.9292124795618949 154 180 167
0.5077651072289616 0.1411820991474949 0.9226514346496013 153 172 170
-0.1713847366328616 -0.1186662607226388 1.1060434666804677 128 148 139
0.4207591207875455 0.1523001907141270 0.9005857588376002 156 182 171
-0.1808635144518049 -0.1078005329280623 1.1773839827191899 23 32 29
0.4219039001537354 0.0882722342375826 0.9927418595091040 171 188 178
0.2567726771667452 0.0921517605065347 0.9940242423337406 184 206 194
0.0962275596374419 0.0986999330212977 1.0093911686252199 32 59 54
0.0307745644498876 -0.0832380329482968 0.9809968550484841 62 61 41
0.4525546684989567 0.1033015262435311 0.9644801767511324 111 146 139
0.1241929627166852 -0.0388317938856540 1.0585419221918360 19 39 37
0.3952842105371276 0.1510297887418870 0.9087723192539737 154 180 169
0.4211948805217743 -0.0556487123530776 1.1559158352705010 128 155 148
0.4806333501841006 0.1475473119716798 0.8755045121831799 82 128 117
0.1177965498054667 -0.0174166275343823 1.0139723040054460 26 53 44
0.1710078609919385 0.0179385931366726 1.0523354417628989 174 190 180
0.1656085477076388 0.0448478669466833 1.0331327455914483 172 193 184
0.2434097165731117 0.0727409065955307 1.0255893897119028 172 191 185
0.3531986978844471 0.0757601430471269 1.0250763838973731 177 188 184
0.6076319555291232 0.0778819033215466 1.0089343708926153 147 159 155
0.4133542080954563 0.0829487533941737 1.0069418191760124 167 184 178
0.4736460969085442 0.0995195584082785 0.9735112921816308 168 179 171
0.4259316879648555 0.1061871769191166 0.9671189436174218 114 150 138
0.2593939342034504 0.1164741939228957 0.9650424906527044 173 193 184
-0.0986096560473300 -0.2978096586288199 0.9712677307786934 43 53 54
-0.1388378763687773 -0.2412563793224793 0.9854033038138961 35 34 32
-0.0816292640681669 -0.1295189092338687 1.0722236197417658 78 125 105
0.1285015477839840 -0.1144477748817210 0.9913400843706548 136 159 151
-0.0188686467561989 -0.2326423400514351 0.9391278366376127 42 44 39
-0.1063197567359712 0.0455754200903439 1.0914336245927172 120 161 145
0.2716083585381448 0.0696168059494273 1.0307220579810064 98 143 149
0.0791867637769286 0.1075019181268817 0.9900089346576905 141 179 166
-0.0306745480592691 -0.2949670056795526 0.9113653082389179 47 49 48
-0.1796735640725029 -0.1424872277654891 1.0778698114813587 27 31 32
0.2894607086755998 0.1036695690624694 0.9923608186028052 84 137 141
-0.0967691673699762 -0.2804820585395397 0.9696510434762226 73 79 75
-0.0563370863834804 -0.1876160018660332 0.9476977236306617 41 39 40
-0.1937225411623744 -0.2018227251914469 1.0451632191509941 22 21 19
-0.1232745532763534 -0.1504742906716126 1.0744424249796236 40 40 38
0.1042623329255609 -0.0750357637973027 0.9781624952779044 29 44 37
0.4940553042874846 0.1072660314085963 0.9699411809515983 164 180 170
0.5406271630520920 0.1419833715621057 0.9200090095339342 122 142 140
-0.0485450504385953 -0.3722123974289183 0.8871312003293602 105 110 103
0.1867897683269334 0.0369258257220134 1.0298777166018400 181 196 191
-0.1628628168433011 -0.0413690003928671 1.1237949356280414 18 22 21
0.5030687550195163 0.1048902483577192 0.9468140708740664 141 162 153
0.1734194934295116 0.0023689784686849 1.1102160255666034 175 196 189
0.5209889125431633 0.1346357683078555 0.9228370767657043 75 117 113
0.4276805665736179 0.1412469064256099 0.9018388716875595 106 153 135
-0.1320765757079000 -0.1398382143619124 1.1306776211888987 23 27 26
0.2290328087762206 0.0597285989871819 1.0584909280298975 200 215 210
0.2330585451908722 -0.3409111091087410 1.4554550720300321 43 95 83
0.0692815430565451 0.1063536096241034 1.0052009631907566 140 176 164
-0.4678756206141002 -0.2629509061787857 1.4285911986133941 120 148 134
-0.2205529995510360 0.0102539016113435 1.1262726476105964 103 147 134
-0.0824617504920650 0.0318080495466250 1.0687163616128126 28 45 37
0.5176748532785040 0.1471352298279763 0.9156686008518483 159 179 170
-0.4446970854726348 -0.1833912361354445 1.3575350177939349 121 143 141
-0.3677553516725322 -0.1828339640402407 1.3664231221142498 67 100 107
0.0308429609728245 -0.1120472451961874 0.9847945838383091 59 64 60
-0.9158643059953855 -0.4123746088074804 1.6777385442521706 80 92 88
-0.0148931337551884 0.0595880439510136 1.0446202456934248 31 46 43
0.3902368715700671 0.0925767220918938 0.9884451619256999 104 158 142
0.4203122607126447 0.1313227312783695 0.9452713038694278 157 177 175
-0.0755641302416711 -0.3061501524698330 0.9743445433063684 132 129 122
0.2196577478992558 0.0817370951723929 1.0633642447564287 91 145 132
-0.1297184613020504 -0.2980446231252200 0.9712492714822185 86 143 134
-0.1490804342534427 -0.1724378859125845 1.0262837288002322 117 70 28
-0.1839852519882653 -0.1573969282844873 1.0793113961537766 31 31 29
-0.1424956573937645 -0.3271185186958352 1.0124356211103034 87 147 137
-0.1168356083567109 -0.2842749086895474 0.9786817408966904 77 135 121
-0.4997314975855029 -0.2568751337399297 1.4371697731442299 116 131 128
-0.5298555189303056 -0.2306472159102147 1.4479923689887526 117 131 132
-0.4578455675872526 -0.2042322058539290 1.3925269990447966 62 101 108
-0.0650496576094294 -0.1420197726925996 1.0032088505712773 81 115 101
0.2781093700749713 0.0506856575193981 1.0567791180086923 172 195 185
-0.0568431527034006 -0.2147594735918068 0.9708990943035986 34 35 37
-0.0949921426714629 -0.3617661377412132 0.9047662689345846 45 79 78
-0.0588528523975694 -0.2934505385662780 0.9627124355769971 88 87 85
0.6834131515773549 0.1666373740102075 0.9350615442529959 133 149 148
0.4113753101888494 0.1557631143069589 0.9069764827629412 99 147 131
0.1309186372361775 -0.0694829965208403 1.0053841608287248 140 166 163
-0.0754280498615027 -0.0993105697532731 1.1318848063719165 27 44 36
-0.0897829535821860 -0.1562336774129538 1.0264351833771148 32 46 29
0.5671826196299823 0.1162653817142585 0.9690347091318017 70 107 113
-0.0579591686574454 -0.2321600510976850 0.9407527891208533 64 62 65
-0.1664244465613210 -0.2421221089048956 1.0301827453865173 32 36 35
-0.2714304771326516 -0.1338707709364012 1.1603618106471587 114 131 138
0.7448760854436699 -0.2359377687418568 1.2975545391673311 105 149 132
-0.1372508837204593 -0.2875182374911589 1.0104128532114149 37 77 66
0.5731934964483809 0.1522431059117635 0.9213551591673870 114 139 133
-0.3150527326326248 -0.1727674344737308 1.3378703215773782 82 110 121
-0.1107028277899085 -0.1342588807485636 1.0981280334410251 31 36 30
0.5559110401814251 0.0960089851873275 1.1848701174193721 88 132 119
-0.0080444658860917 -0.3170610864211160 0.8906506906795246 107 96 76
0.4969781011310467 0.0873045404023602 0.9881574969176554 81 128 110
0.4457676281334553 0.0944077159465399 0.9911284379221270 178 191 184
-0.0635293054531897 -0.3042765973052499 0.9290352454911165 52 57 53
0.8092139999254879 -0.2186292294302659 1.3428485460905575 48 95 75
-0.2238030486283714 -0.1296756796470353 1.1110408334374806 27 32 35
0.6485487647406918 0.1203899220698268 1.0201631359490722 69 118 99
-0.0365803301658656 -0.3619398172737602 0.8669403978525819 64 78 81
0.6044373100954694 0.0913255237320397 0.9742406173865590 140 163 157
-0.2701788727019953 -0.0540411306191827 1.1764315600340345 92 139 119
0.1475755692851553 -0.0411452078494228 1.0865205393071795 101 148 130
0.0855176605389570 -0.1926416169531891 1.0201570868762511 99 135 123
0.0481489804838222 0.0749395200263589 1.1323829285277995 31 46 41
0.6346503057188235 0.0705200618953731 1.0286453783368394 60 105 102
-0.1582716326339647 -0.1374088528647978 1.0515523109060623 27 37 26
-0.3403330744525725 -0.1890630776105187 1.3712775398470245 141 152 156
-0.0869014700012270 -0.2397100417252669 0.9679528664976167 75 71 60
0.5559585338355015 0.1045051978785382 0.9571130072884155 76 121 124
0.0514886801526786 -0.2637673269271464 0.9642317738196701 105 165 153
-0.0721170269846991 -0.3228738645519855 0.8761238845788341 51 56 52
0.0168260499379751 -0.0507869392537649 1.1804504448792155 13 13 13
0.1401994586547208 -0.0870653960908641 1.0277705948576266 101 149 135
-0.2308594600443664 -0.1193954109067621 1.2387739785314889 88 106 110
0.5872226678444966 0.1420891901845620 0.9251934137521431 73 109 107
0.0443422460311166 0.0312821514579224 1.0437954779822001 73 86 79
-0.6290240344584173 -0.2522433148869652 1.4498350862101603 78 110 99
0.6786485784720860 -0.2549723717091293 1.3282289758627861 97 147 136
0.8016586506711918 -0.1879319851148172 1.2251968113657579 30 73 54
0.5771515616393559 0.0918199600159670 0.9815184172612328 59 105 105
-0.0765551981162948 -0.3615403577844792 0.8763541221482384 66 89 83
0.2565377073275019 0.1465614409465758 0.9310236518496529 96 145 150
-0.0491935730772471 -0.2856020268219946 0.9343197222839379 63 61 62
0.4041070709424476 -0.2820164752540249 1.3362228778517933 55 106 87
-0.0295399624814235 -0.1831867107716159 0.9091137319886945 132 106 93
0.6342007795361770 0.0851632609067343 0.9818544618171131 63 106 96
0.6131999543760928 -0.2947125483744323 1.5013967541834963 42 90 74
-0.0230432610665717 -0.3124866222489274 0.8800532121814223 255 255 255
-0.4488532498851613 -0.2187879378758239 1.4026829361295672 58 88 98
-0.0628679336207931 -0.1468703313697712 1.0459760267818425 89 123 107
0.0958749418509440 -0.0953416624817538 0.9840949879933500 68 78 79
-0.1074862885219228 -0.2607320089120957 0.9914805324339389 58 58 60
-0.0935632597506211 -0.1986892151610319 0.9639801721443940 157 105 57
-0.1920482161115855 -0.2138133635572268 1.0409711247746953 26 28 25
-0.0397993850814204 -0.1737854755655904 0.9958738615600092 42 44 43
-0.0303900163873239 -0.3754492161550251 0.8636675026987384 101 155 141
-0.1009365973342263 -0.3494367253761012 0.9360825801016317 62 87 81
-0.0901343055638008 -0.3138367106652424 0.9709110837904614 43 53 55
0.4665238172186220 -0.2793678634210212 1.3669141954257900 37 94 77
0.0329967346716007 -0.2064163733434383 1.0267957007141952 255 255 253
0.6722749840282245 -0.1540246507226540 0.9438787754057693 79 126 110
0.7903316557036413 -0.2182896251888237 1.2691504002777445 89 139 127
-0.2958417248050382 -0.1608518984480135 1.3400215046527224 73 108 114
-0.0652204670351984 -0.1072169499488294 1.0926363833496675 47 101 78
-0.4759762312250245 -0.2279722060243372 1.3851917950938692 60 87 94
0.0668817093930450 0.0946467389890603 0.9968430480718303 34 66 61
0.4715590649332385 0.1801222463637011 0.8816449875232824 144 168 154
-0.0119369355168488 -0.2385539719095078 0.9727534574020329 49 54 50
0.0264321895459559 -0.3152516763272762 1.0449169858269591 63 67 70
0.1306279617550369 0.0626727509696164 1.0773489856934466 25 45 43
-0.0890307188243104 -0.3547176920191301 0.8867627465774230 255 254 255
-0.0477350836893043 -0.3140804872819516 0.8270874412142490 255 253 255
-0.0435375661212096 -0.3089418588285061 0.8516019760758381 101 92 87
-0.1150744472007014 -0.5268397512183588 1.8006445341365371 102 154 142
-0.0895228538738223 -0.2928979806982648 0.9623988770728187 64 77 83
0.4171816877770373 -0.3065890745689064 1.4348320910127983 45 92 72
0.6095989198194744 -0.2780593105705894 1.3718826095276282 116 162 151
-0.0988944016551348 -0.3255821304131572 0.9524688634027377 94 89 83
-0.3007511955240109 -0.1827719869608472 1.3631944027311449 146 157 151
-0.1395256939610856 -0.1395179995244591 1.0909509750978976 34 36 25
0.4260729641722521 -0.0565414518530558 1.1723024296055244 139 160 153
-0.0160677151281889 -0.2330184745438938 0.9571963559088167 59 59 57
-0.1430133573940806 -0.2232306052128522 0.9992188161083204 200 194 180
-0.0124557946097439 -0.2091391104452701 0.9329144161702440 85 91 87
0.6865269164784356 0.1189419326804780 1.0034119113986084 160 167 160
-0.1224673767927508 -0.1522481483556529 1.0662005313057932 29 30 22
-0.0143866221825245 -0.1638643693625669 0.9428894432692461 48 43 37
-0.0958737404294382 -0.2764391273140773 0.7779187397066472 49 54 50
-0.0984720249183294 -0.3537352595502430 0.9408227162680360 107 121 121
-0.0886209202886513 -0.3397785154197334 0.9393538097797756 236 234 237
0.7363929565380622 -0.1911566079831600 1.1898206299300473 38 80 60
0.4348220212172488 0.1427896357931145 0.9174533705219284 95 136 120
0.0554286415818103 -0.1185754799438527 0.9646682303505774 32 33 28
-0.2527004512871855 -0.1342275278119212 1.3109365654757619 65 104 119
0.0956964153792148 -0.0834031714645874 0.9517762664008228 37 43 39
-0.0388021294782406 -0.3613181689601364 0.8606443449597846 69 87 87
-0.1835402335287060 0.0297646041021486 1.0128920074846770 133 176 157
-0.0744914355567002 -0.3447398719170128 0.8810906360690219 101 99 102
-0.0202337527097934 -0.3314567595799040 0.8760163589836326 94 90 79
-0.0858234003446957 -0.2711554609064358 0.9733032024054747 69 73 76
-0.0818968437793296 -0.3451194122050407 0.8913774614837777 255 254 255
0.3903788371527994 -0.2536093810101235 1.1373282519740029 108 154 143
1.2040463166675146 -0.1533198213460562 1.3289167730615876 29 61 48
-0.4705173979389102 -0.2474942054103191 1.4254461235557547 56 84 88
-0.3918506455679327 -0.1904850568099771 1.3458489042314721 56 97 101
0.7700098507267831 -0.2317499656325732 1.3655912950591003 39 84 64
0.0001250606837118 -0.0432242428034742 0.9777591828209059 33 44 38
0.0803909308249385 -0.0043576451400906 1.3896644059708909 47 64 58
-0.1019528599850678 -0.2921652398592409 0.9660413233649794 53 65 63
-0.4790619434677030 -0.2302303221170510 1.3989965504029778 46 79 86
0.0162015804396880 0.0155286218355749 1.0450211836770720 24 36 34
0.0227585118409494 0.0749029440655989 0.9796053164672921 32 55 49
0.0783520780079050 -0.0473376276550807 0.9515937857006443 25 40 35
0.0655933948367186 0.0955339537527097 1.6379255597941262 32 52 50
-0.0241395762488366 0.0453868822708397 1.1173116244737487 37 56 50
-0.0801521328916841 -0.3820339992666642 0.8546766632701497 110 167 152
0.1059654147482251 0.0351072938065262 1.0979085918022018 22 37 32
-0.6394483000339157 -0.2586898319660879 1.4995744633214039 84 107 99
0.0152588503454542 -0.4642806511261089 1.6778728106821970 105 157 145
-0.0003367076874740 -0.4248782804547064 1.5174364861340035 111 159 147
-0.2328703998281634 -0.1511907917935757 1.1202275677322531 48 69 62
-0.0928116125003214 -0.3363215409929875 0.8952779028222833 63 63 61
-0.0471390393406076 -0.2679233573765467 0.9654274696149628 255 255 253
0.0056835500955363 -0.2470582792384623 0.8928162541394707 19 54 48
0.7702432814392217 -0.2460518171322832 1.4185745080407175 36 81 60
0.7021112019072372 0.1510950982277588 0.9624419488193438 57 109 86
-0.1239325800310111 -0.1451858748124756 1.0749951403906204 36 36 26
0.5951196425232146 0.0746464251501237 0.9993585998074330 142 162 153
-0.0499120159315992 0.0600939811158688 1.0072244360846347 130 175 154
-0.1314938412422047 0.0284877462977885 0.9645099754437955 137 180 160
-0.0856239304044594 -0.2324469295863083 0.9411701632454007 70 65 61
-0.0070893745980958 -0.1577008236137502 0.9651479751767736 32 33 28
0.2791199140878504 0.0705217849373876 1.0399303272056630 90 129 134
-0.5279261054673425 -0.2427046994328785 1.4339724897218757 61 95 97
-0.1842421864162021 0.0008218840006655 1.0682149669285166 44 63 59
-0.2576293257606200 -0.1416643105857258 1.0508631922491329 160 172 168
0.0426505516462663 -0.1797505069737959 0.9262083820171970 91 135 118
-0.1357264402664309 0.0106344205920249 1.0764607441671197 31 54 48
-0.1366746998948987 -0.0543438367944966 1.2262857626845871 34 38 37
-0.1011174760872466 -0.4772814704800237 1.6282346451093836 113 164 149
0.0773062992593162 -0.4601157712432638 1.7642874613418107 57 105 89
0.0402748959275807 -0.2424906970434937 0.9033155019420808 52 99 83
0.4559048452507685 -0.2858471642957218 1.3059908534384650 121 167 156
0.0179767630174866 -0.1219999813583656 0.9813433907932883 35 36 30
-0.1375088436284179 -0.1358477524841882 1.1060374359732943 34 31 24
-0.0856662184611180 -0.1682011266891452 1.0164878280665088 151 103 55
-0.2577415800262436 -0.1596581372410576 1.3404626288673442 155 170 167
-0.3031487467456108 -0.1449080133480066 1.3217754794771990 71 112 114
0.3063782367857685 0.0624976765349680 1.0448232347593509 176 188 178
0.1598356399156644 0.0114331005019845 1.0295744945074432 161 176 169
0.5729569700962009 0.1441383395440002 0.8853916256930702 123 140 132
0.1151484973026218 0.1120903288291277 1.0046119478465394 129 166 148
-0.2684331237284585 -0.0606774692407464 1.2018005144448838 98 148 121
-0.0873656452733372 -0.3720918866827162 0.8960957265932490 75 107 102
0.0091952573966416 0.0146250970146355 1.0612799003382747 85 93 82
-0.1334815867061195 -0.4924052124017650 1.6513712503697970 98 146 134
-0.3913722482095980 -0.1978525131873717 1.3782159672391474 71 100 108
0.0172177526801008 -0.2677540156230671 0.8737473633554675 90 151 136
0.9649348262493448 0.1040780121956421 0.9837878240978557 89 113 97
0.4504035087289255 0.0952364060401248 0.9941860649529608 159 181 169
-0.1210585013323273 -0.1358449710515419 1.0899244912583921 27 27 19
0.6989648483657586 0.1783489784891857 0.8726503373987454 137 157 146
0.4875043288900675 0.0827452889670843 0.9786617069679503 63 109 96
0.6130798013450258 0.1299898847609691 0.9033758010891388 55 112 95
-0.2214128802329962 -0.0163710257731392 0.9611808981191762 38 57 51
-0.0649677398467324 0.0361092863466512 1.1680311222146771 33 48 41
-0.0275139377750716 0.0499909966023616 1.0723355963329717 34 50 40
0.7479693345835811 0.1396904674848476 0.9279342014420736 120 137 129
-0.1286827493313519 -0.2001035181937022 0.9827616667551945 127 85 60
0.0141660210400528 -0.1707095092399062 0.9448582324249052 132 90 48
-0.5096708252607082 -0.2250425143048001 1.4710988635542563 99 119 120
-0.0825575548811849 -0.3597103941083873 0.8692095160967988 45 67 64
-0.2592974726843306 -0.0571531207414688 1.2310579593668762 103 156 136
-0.0848663991471037 -0.1239960919277391 1.0672703743046144 93 135 113
-0.0200707971445848 -0.3196104458784024 0.9441910681645995 42 42 40
-0.0187555107070940 -0.3557533816067596 0.8688382123616749 114 161 151
-0.0661951521121496 0.0392791304653054 1.0710572440218187 34 54 45
-0.0351287594287374 -0.2643998325078239 0.9110833187818105 94 143 124
1.0385281533648307 -0.1575268632276682 1.2592834477095229 32 68 56
-0.1327646695755793 -0.1485567618484153 1.0326654246011815 47 48 34
0.0095549057201045 -0.2747837199143207 0.8805842088820518 40 45 41
-0.4445650091133541 -0.2289533881482651 1.4122154329834131 63 96 101
-0.4691389260450195 -0.2447669675158142 1.4198229859218490 67 102 98
0.9592787392933444 -0.0608374397620041 1.1144944897213795 118 132 117
-0.3764170872335383 -0.2062232981183297 1.3815167669768460 138 152 152
0.0287028920985439 -0.2006842392260144 0.9622036887813024 71 54 34
-0.0367355286014295 -0.2000206060093515 0.9244251378319737 125 101 91
-0.2405723949292676 -0.1533611235102607 1.3046646574856562 159 172 165
0.5452280999221258 0.1345622231381521 0.9237450075792460 132 149 143
0.2999179538819601 0.0885725312202543 1.0211226884754767 121 149 150
-0.2304767167468610 -0.1109263022383570 1.2273087174132875 144 159 152
-0.0112266521553772 0.0656632140710785 1.0421224465645691 46 71 68
-0.0402077585019719 0.0637198161882516 1.0528379818657798 121 170 151
-0.1914397698429741 -0.0396931125312232 1.1775224882901008 24 30 26
-0.0917407793763092 0.0424769705875752 1.0524562774805977 131 169 154
-0.1569826915269393 0.0168566019896858 1.2181843458696056 39 62 52
-0.1130193949745901 -0.1553358204291858 1.0289337663038807 40 49 44
-0.1230263566040370 -0.2566848599624073 0.9836644698480617 56 57 59
-0.4492929832979465 -0.2117192159700619 1.3870541134329575 59 98 105
-0.2305854040777046 -0.1329995200684919 1.2250367916742415 134 153 147
-0.0574973768954394 -0.1804876584698825 0.9450854026188958 24 24 22
0.7244017672342690 0.1531541664023615 0.8866334414098488 122 143 138
0.0427451525713865 -0.0389017772793465 1.0765529634638098 21 21 21
-0.1273493508100144 -0.2238423596926779 1.0642612203003914 255 252 249
-0.1158650593146365 -0.2179332000015072 0.9662242899451142 161 138 130
-0.1531584435162517 -0.2093708359930156 0.9802382285528561 147 116 98
-0.0890778631449339 -0.1694134617425488 0.9903995674122140 138 86 39
0.8602168409541668 0.2097568479983080 0.9000806156708170 70 113 96
0.0731815871037308 -0.0361213174051682 0.9093278355976172 96 143 125
0.8494690477407041 0.1586025070158953 0.8881958872693790 126 139 129
-0.0806592994810279 -0.3108668244374327 0.9297298800042447 60 59 54
-0.0350342056614874 -0.2347246003756441 0.9324946495351371 62 54 52
-0.0216213630736030 -0.3301110674155254 0.8314580268871630 110 160 148
0.7875859171963514 0.1828441065415585 0.8368203440337071 121 139 143
-0.1283299517371490 -0.5756129366224099 1.9321546543663899 101 144 127
1.1326618799247847 0.1623689371170767 0.9548091608224933 109 137 125
0.0416409741187208 -0.4296814280166918 1.6081379761671728 56 107 90
-0.0932768402441193 0.0284454623172676 1.0697102738095339 31 52 45
-0.0477484977898767 -0.2009978377425414 0.9416000824002869 47 47 47
-0.0417408191481543 0.0838027804477294 0.9872418983709025 170 196 183
0.0172972147001444 0.0332768663539492 0.0151418811719226 0 255 0
0.0165971880597899 0.0319932736720301 0.0139569539724215 0 255 0
0.0139039743404014 0.0324922647123117 0.0163750949518277 0 255 0
0.0010973794823871 0.0291154458606646 0.0127416925626885 0 255 0
-0.0311948669869134 0.0253864768581858 0.0077373391326073 0 255 0
-0.0515107746228805 0.0175505549178934 0.0032529116188333 0 255 0
-0.0728877276620956 0.0154406880288106 -0.0066312552234485 0 255 0
-0.1010538736342908 0.0116167087256178 -0.0068564929184955 0 255 0
-0.1325332477670052 0.0010192417119461 -0.0019533168810203 0 255 0
-0.1733167968578053 -0.0069618920073893 -0.0048446713092688 0 255 0
-0.2091400041034953 -0.0143637109052152 -0.0008255127274212 0 255 0
-0.2445145166783100 -0.0279477028615914 0.0139334174495206 0 255 0
-0.2807708783611227 -0.0480580868608911 0.0277071373236978 0 255 0
-0.3097343364487889 -0.0644667207159165 0.0335942077244054 0 255 0
-0.3340289456408692 -0.0843009650354167 0.0423838652175193 0 255 0
-0.3609348355492173 -0.0985035107048926 0.0565213809694868 0 255 0
-0.3929796719295093 -0.1139370215788205 0.0754083360649730 0 255 0
-0.4208618275074418 -0.1263859852891467 0.0892077351789213 0 255 0
-0.4557840650120082 -0.1388194243441006 0.1154422014477011 0 255 0
-0.4856133621975270 -0.1500863562831978 0.1416117055862763 0 255 0
-0.5291017154944408 -0.1631018019009250 0.1602142846006015 0 255 0
-0.5656477981190469 -0.1696802182367318 0.1764021793644242 0 255 0
-0.6059266957495807 -0.1739738506105721 0.2061196329990597 0 255 0
-0.6450833220027989 -0.1765336254215930 0.2380160190864156 0 255 0
-0.6695503109224903 -0.1826472908296286 0.2755370484910754 0 255 0
